# .PCD v0.7 - Point Cloud Data file format
VERSION 0.7
FIELDS x y z rgb
SIZE 4 4 4 4
TYPE F F F F
COUNT 1 1 1 1
WIDTH 358
HEIGHT 1
VIEWPOINT 0 0 0 1 0 0 0
POINTS 358
DATA ascii
1392.42 378.28799 -301.34698 1.8403113e-38
1394.64 390.59698 -302.15399 1.8403113e-38
1404.76 405.83301 -305.83801 1.8403113e-38
1395.17 414.12299 -302.34698 1.8403113e-38
1392.61 424.936 -301.418 1.8403113e-38
1397.92 438.81201 -303.34799 1.8403113e-38
1392.52 448.616 -301.38199 1.8403113e-38
1363.49 -980.89398 -290.81601 1.8403113e-38
1365.6899 -965.56598 -291.617 1.8403113e-38
1361.5 -928.16901 -290.09299 1.8403113e-38
1370.45 -886.47302 -293.349 1.8403113e-38
1370.12 -870.22498 -293.23001 1.8403113e-38
1366.5699 -851.70099 -291.93799 1.8403113e-38
1368.51 -678 -292.64499 1.8403113e-38
1362.12 -569.44397 -290.32001 1.8403113e-38
1363.36 -557.51202 -290.76901 1.8403113e-38
1362.1 -519.80902 -290.31201 1.8403113e-38
1366.7 -485.625 -291.98499 1.8403113e-38
1365.85 -403.379 -291.67599 1.8403113e-38
1365.55 -391.871 -291.56699 1.8403113e-38
1363.36 -379.78201 -290.76999 1.8403113e-38
1361.59 -334.62399 -290.12799 1.8403113e-38
1363.39 -324.16 -290.78201 1.8403113e-38
1362.38 -312.91199 -290.41199 1.8403113e-38
1367.63 -303.45999 -292.32501 1.8403113e-38
1366.4301 -292.242 -291.888 1.8403113e-38
1366.48 -270.616 -291.905 1.8403113e-38
1364.98 -259.51099 -291.36099 1.8403113e-38
1364.3101 -248.662 -291.117 1.8403113e-38
1361.77 -226.87199 -290.19 1.8403113e-38
1363.59 -216.67799 -290.85199 1.8403113e-38
1362.54 -205.94701 -290.47299 1.8403113e-38
1365.12 -195.911 -291.41 1.8403113e-38
1361.66 -174.41499 -290.151 1.8403113e-38
1363.05 -164.224 -290.65601 1.8403113e-38
1366.21 -154.282 -291.80899 1.8403113e-38
1364.5699 -81.824303 -291.21201 1.8403113e-38
1361.58 -10.1839 -290.12201 1.8403113e-38
1361.62 0 -290.13699 1.8403113e-38
1361.25 30.5485 -290.00101 1.8403113e-38
1361.52 50.947399 -290.099 1.8403113e-38
1364.27 71.548897 -291.10001 1.8403113e-38
1363.55 237.84599 -290.83899 1.8403113e-38
1361.5601 248.039 -290.11301 1.8403113e-38
1365.13 281.06799 -291.414 1.8403113e-38
1365.1 313.689 -291.40399 1.8403113e-38
1361.58 323.62601 -290.12201 1.8403113e-38
1367.8199 347.63501 -292.39301 1.8403113e-38
1363.13 357.27802 -290.686 1.8403113e-38
1387.92 458.711 -299.70801 1.8403113e-38
1386.74 470.22101 -299.27802 1.8403113e-38
1360.41 -1546.96 -289.698 1.8403113e-38
1359.33 -1517.6801 -289.30301 1.8403113e-38
1346.86 -1473.58 -284.763 1.8403113e-38
1340.89 -1388.92 -282.59299 1.8403113e-38
1337.14 -1359.73 -281.22699 1.8403113e-38
1342.15 -1342.12 -283.04901 1.8403113e-38
1341.4 -1317.72 -282.77701 1.8403113e-38
1346.5601 -1300.9399 -284.655 1.8403113e-38
1350.27 -1282.67 -286.00601 1.8403113e-38
1346.15 -1255.58 -284.504 1.8403113e-38
1355.76 -1244.76 -288.004 1.8403113e-38
1349.11 -1215.73 -285.58301 1.8403113e-38
1344.02 -1189.0699 -283.73199 1.8403113e-38
1343.1899 -1167.59 -283.42999 1.8403113e-38
1348.74 -1153.29 -285.44901 1.8403113e-38
1358.16 -1143.1801 -288.87601 1.8403113e-38
1341.8 -1106.59 -282.92401 1.8403113e-38
1354.24 -1099.99 -287.452 1.8403113e-38
1357.04 -1083.7 -288.46899 1.8403113e-38
1359.65 -1067.4301 -289.41901 1.8403113e-38
1343.22 -1033.14 -283.439 1.8403113e-38
1350.24 -1021.76 -285.996 1.8403113e-38
1355.03 -1008.36 -287.73901 1.8403113e-38
1354.6899 -990.40802 -287.61301 1.8403113e-38
1349.46 -934.54102 -285.71201 1.8403113e-38
1351.3 -903.17499 -286.379 1.8403113e-38
1354.9301 -890.00897 -287.703 1.8403113e-38
1353.62 -826.34003 -287.22601 1.8403113e-38
1354.2 -811.60999 -287.436 1.8403113e-38
1357.71 -799.19897 -288.715 1.8403113e-38
1356.4399 -783.42902 -288.25 1.8403113e-38
1354.98 -767.74402 -287.72101 1.8403113e-38
1353.36 -752.146 -287.129 1.8403113e-38
1353.14 -737.71198 -287.05099 1.8403113e-38
1355.17 -724.92902 -287.78799 1.8403113e-38
1353.86 -710.07501 -287.31201 1.8403113e-38
1358.83 -699.42102 -289.12299 1.8403113e-38
1355.62 -683.65399 -287.953 1.8403113e-38
1351.95 -654.43103 -286.616 1.8403113e-38
1359.74 -645.76599 -289.45099 1.8403113e-38
1353.4301 -628.89502 -287.155 1.8403113e-38
1358.54 -618.763 -289.017 1.8403113e-38
1356.0699 -604.42902 -288.11899 1.8403113e-38
1349.27 -587.91803 -285.64099 1.8403113e-38
1356.5699 -579.16498 -288.29901 1.8403113e-38
1359.37 -543.06403 -289.31799 1.8403113e-38
1354.38 -528.31897 -287.50101 1.8403113e-38
1358.5699 -506.01199 -289.026 1.8403113e-38
1353.16 -491.54001 -287.05801 1.8403113e-38
1359.3101 -470.50601 -289.297 1.8403113e-38
1358.76 -458.49301 -289.095 1.8403113e-38
1359.84 -447.24301 -289.48999 1.8403113e-38
1359.0699 -435.30801 -289.20801 1.8403113e-38
1360.83 -424.44699 -289.85001 1.8403113e-38
1354.53 -410.582 -287.55499 1.8403113e-38
1361.05 -367.763 -289.931 1.8403113e-38
1358.64 -355.81601 -289.05099 1.8403113e-38
1358.8101 -344.79501 -289.11401 1.8403113e-38
1356.91 -278.96701 -288.42099 1.8403113e-38
1358.02 -236.64999 -288.828 1.8403113e-38
1356.47 -183.967 -288.26401 1.8403113e-38
1359.04 -142.953 -289.19901 1.8403113e-38
1354.5699 -132.108 -287.57199 1.8403113e-38
1351.88 -121.567 -286.59 1.8403113e-38
1352.83 -111.469 -286.93799 1.8403113e-38
1356.51 -101.624 -288.27802 1.8403113e-38
1357.3 -91.483299 -288.56601 1.8403113e-38
1355.8199 -70.999397 -288.02701 1.8403113e-38
1357.3 -60.918999 -288.56601 1.8403113e-38
1353.0699 -50.554901 -287.02399 1.8403113e-38
1354.38 -40.483398 -287.50201 1.8403113e-38
1358.4301 -30.469999 -288.97501 1.8403113e-38
1353 -20.2099 -286.99899 1.8403113e-38
1358.76 10.1577 -289.09601 1.8403113e-38
1359.58 20.332001 -289.39301 1.8403113e-38
1357.2 40.5881 -288.52701 1.8403113e-38
1359.1801 61.023701 -289.24899 1.8403113e-38
1356.14 81.196503 -288.142 1.8403113e-38
1360.11 91.718697 -289.58899 1.8403113e-38
1359.3199 101.885 -289.29999 1.8403113e-38
1358.4399 112.044 -288.98099 1.8403113e-38
1356.55 122.089 -288.29099 1.8403113e-38
1356.4399 132.33501 -288.25101 1.8403113e-38
1359.04 142.953 -289.19901 1.8403113e-38
1354.1 152.58501 -287.401 1.8403113e-38
1353.74 162.832 -287.26901 1.8403113e-38
1356.08 173.528 -288.121 1.8403113e-38
1356.47 183.967 -288.26401 1.8403113e-38
1357.7 194.591 -288.711 1.8403113e-38
1358.84 205.252 -289.12601 1.8403113e-38
1357.12 215.40199 -288.49799 1.8403113e-38
1357.15 225.918 -288.51199 1.8403113e-38
1352.14 256.48099 -286.68701 1.8403113e-38
1357.3199 268.367 -288.57199 1.8403113e-38
1357.015 295.13049 -288.461 1.8403113e-38
1342.63 328.83499 -283.224 1.8403113e-38
1341.02 462.63901 -282.638 1.8403113e-38
1338.05 472.99701 -281.55801 1.8403113e-38
1334.99 483.33401 -280.44601 1.8403113e-38
1343.0601 498.83499 -283.38 1.8403113e-38
1356.09 516.96198 -288.125 1.8403113e-38
1351.8101 527.07501 -286.56699 1.8403113e-38
1355.96 541.37402 -288.07901 1.8403113e-38
1336.25 1974.54 -280.90302 1.8403113e-38
1354.26 2048.8201 -287.45801 1.8403113e-38
1309.01 -3633.96 -270.98901 1.8403113e-38
1309.67 -3525.8899 -271.22699 1.8403113e-38
1308.63 -3418.1001 -270.85001 1.8403113e-38
1311.28 -3327.6699 -271.81299 1.8403113e-38
1311.3 -3233.6699 -271.82001 1.8403113e-38
1312.6801 -3148.4199 -272.32401 1.8403113e-38
1312.75 -3063.3999 -272.34799 1.8403113e-38
1316.11 -2991.73 -273.57101 1.8403113e-38
1313.3199 -2906.24 -272.55801 1.8403113e-38
1313.6899 -2833.1201 -272.69299 1.8403113e-38
1314.71 -2764.8601 -273.06299 1.8403113e-38
1315.05 -2697.73 -273.186 1.8403113e-38
1314 -2629.8799 -272.80399 1.8403113e-38
1317.91 -2576.9399 -274.229 1.8403113e-38
1314.16 -2507.6799 -272.86301 1.8403113e-38
1316.76 -2455.99 -273.80899 1.8403113e-38
1316.6 -2399.8999 -273.75299 1.8403113e-38
1316.02 -2344.9199 -273.539 1.8403113e-38
1317.49 -2296.4199 -274.07599 1.8403113e-38
1315.3199 -2241.8101 -273.285 1.8403113e-38
1321.72 -2207.02 -275.61401 1.8403113e-38
1316.78 -2150.1101 -273.81601 1.8403113e-38
1323.34 -2118.1899 -276.20499 1.8403113e-38
1313.77 -2055.55 -272.72 1.8403113e-38
1319.1899 -2023.87 -274.69501 1.8403113e-38
1317.7 -1980.0601 -274.15302 1.8403113e-38
1321.6899 -1947.6899 -275.60199 1.8403113e-38
1320.45 -1906.78 -275.151 1.8403113e-38
1322.49 -1872.91 -275.89499 1.8403113e-38
1322.1 -1835.73 -275.75201 1.8403113e-38
1323.67 -1802.95 -276.323 1.8403113e-38
1325.28 -1771.12 -276.91101 1.8403113e-38
1325.95 -1738.5601 -277.15302 1.8403113e-38
1324.09 -1702.79 -276.47601 1.8403113e-38
1328.03 -1677.14 -277.909 1.8403113e-38
1328.96 -1647.4301 -278.25101 1.8403113e-38
1330.5699 -1619.46 -278.83701 1.8403113e-38
1332.36 -1592.41 -279.48499 1.8403113e-38
1332.67 -1563.83 -279.60001 1.8403113e-38
1318.0601 -1514.47 -274.284 1.8403113e-38
1333.16 -1429.04 -279.77802 1.8403113e-38
1309.36 -1372.4399 -271.11401 1.8403113e-38
1294.92 -3700.0801 -265.85999 1.8403113e-38
1286.39 1960.9 -262.75699 1.8403113e-38
1291.8 2012.49 -264.72299 1.8403113e-38
1283.37 2081.8101 -261.65601 1.8403113e-38
1258.3199 -3686.4399 -252.539 1.8403113e-38
1277.6899 514.03003 -259.591 1.8403113e-38
1253.64 1978.6899 -250.83501 1.8403113e-38
1233.33 -3715.76 -243.442 1.8403113e-38
1228.6801 500.181 -241.75 1.8403113e-38
1232.5601 2020.8 -243.161 1.8403113e-38
1230.16 2105.8701 -242.28999 1.8403113e-38
1204.42 509.37701 -232.92101 1.8403113e-38
1199.37 517.62 -231.084 1.8403113e-38
1214.1801 537.07501 -236.472 1.8403113e-38
1200.65 540.62097 -231.549 1.8403113e-38
1201.9399 552.68298 -232.017 1.8403113e-38
1210.08 2017.1801 -234.98 1.8403113e-38
1187.01 -3661.8201 -226.58501 1.8403113e-38
1193.42 492.60199 -228.918 1.8403113e-38
1178.87 2038.9399 -223.623 1.8403113e-38
1163.84 541.17297 -218.149 1.8403113e-38
1164.11 2051.8799 -218.248 1.8403113e-38
1147.25 2060.1499 -212.11099 1.8403113e-38
1142.17 2096.5901 -210.263 1.8403113e-38
1119.7 2091.8101 -202.08299 1.8403113e-38
1095.8101 515.60596 -193.3895 1.8403113e-38
1105.8101 2107.96 -197.03101 1.8403113e-38
1060.01 -3271.3701 -180.36099 1.8403113e-38
1060.8101 508.85699 -180.64999 1.8403113e-38
1085.98 2109.22 -189.812 1.8403113e-38
1061.59 2152.0601 -180.937 1.8403113e-38
1082.38 2152.9199 -188.502 1.8403113e-38
1033.84 -3281.54 -170.834 1.8403113e-38
1045.39 508.91299 -175.03799 1.8403113e-38
1032.42 510.31201 -170.31799 1.8403113e-38
1041.22 2151.8999 -173.522 1.8403113e-38
1014.14 -4521.25 -163.666 1.8403113e-38
1015.06 -4306.6602 -163.998 1.8403113e-38
1014.3 -4102.2202 -163.724 1.8403113e-38
1011.38 -3904.02 -162.661 1.8403113e-38
1011.33 -3736.52 -162.64101 1.8403113e-38
1010.82 -3580.0801 -162.45599 1.8403113e-38
1008.86 -3428.8101 -161.745 1.8403113e-38
1006.9 -3288.55 -161.03 1.8403113e-38
1028.21 517.41901 -168.784 1.8403113e-38
1020.59 2150.6001 -166.00999 1.8403113e-38
980.91602 -4552.6899 -151.57201 1.8403113e-38
987.47601 508.88599 -153.96001 1.8403113e-38
1001.08 508.69299 -158.911 1.8403113e-38
1000.35 2150.02 -158.645 1.8403113e-38
953.927 513.35101 -141.74899 1.8403113e-38
967.40399 513.72998 -146.65401 1.8403113e-38
976.26398 510.543 -149.879 1.8403113e-38
941.20398 -4543.3701 -137.118 1.8403113e-38
943.57098 515.08301 -137.98 1.8403113e-38
928.97803 522.849 -132.668 1.8403113e-38
938.56201 520.77802 -136.15601 1.8403113e-38
945.67798 545.84601 -138.746 1.8403113e-38
937.36298 559.02002 -135.72 1.8403113e-38
944.90399 555.19 -138.465 1.8403113e-38
903.64301 -4547.4902 -123.447 1.8403113e-38
918.04498 552.79303 -128.689 1.8403113e-38
917.13898 561.98297 -128.35899 1.8403113e-38
916.96399 1177.85 -128.295 1.8403113e-38
893.65302 551.47998 -119.811 1.8403113e-38
870.44702 809.99902 -111.364 1.8403113e-38
887.11902 817.55701 -117.433 1.8403113e-38
884.82397 1862.66 -116.597 1.8403113e-38
865.41302 -4546.3198 -109.532 1.8403113e-38
845.91602 518.729 -102.436 1.8403113e-38
841.81897 552.70203 -100.945 1.8403113e-38
842.80701 563.44202 -101.305 1.8403113e-38
850.16602 755.41998 -103.983 1.8403113e-38
855.354 818.73999 -105.871 1.8403113e-38
849.18402 824.98999 -103.625 1.8403113e-38
848.26898 854.32202 -103.292 1.8403113e-38
865.87201 864.146 -109.7 1.8403113e-38
827.86401 -4549.7402 -95.865601 1.8403113e-38
826.63501 510.466 -95.418297 1.8403113e-38
837.17999 538.71002 -99.256401 1.8403113e-38
827.16901 557.875 -95.612602 1.8403113e-38
830.80499 770.67401 -96.936096 1.8403113e-38
817.776 824.69897 -92.194099 1.8403113e-38
818.367 924.35699 -92.408997 1.8403113e-38
811.76202 931.15698 -90.004898 1.8403113e-38
819.81702 963.48297 -92.936699 1.8403113e-38
789.73199 -4547.8501 -81.986603 1.8403113e-38
807.534 501.88501 -88.466301 1.8403113e-38
787.784 546.70898 -81.277901 1.8403113e-38
791.57202 541.13898 -82.656303 1.8403113e-38
804.84998 545.177 -87.489403 1.8403113e-38
786.604 555.07898 -80.848099 1.8403113e-38
792.57001 571.31299 -83.019798 1.8403113e-38
786.66699 595.32202 -80.8713 1.8403113e-38
797.63702 618.57599 -84.863899 1.8403113e-38
793.802 624.98499 -83.468002 1.8403113e-38
796.28552 644.698 -84.372047 1.8403113e-38
789.84198 653.94897 -82.026901 1.8403113e-38
800.21301 813.41803 -85.801498 1.8403113e-38
798.87701 842.302 -85.315399 1.8403113e-38
789.07703 858.79797 -81.748199 1.8403113e-38
797.13599 855.56702 -84.681702 1.8403113e-38
802.21503 951.45502 -86.530296 1.8403113e-38
769.58801 556.04999 -74.6549 1.8403113e-38
775.35797 572.32001 -76.755203 1.8403113e-38
783.85602 658.03198 -79.848 1.8403113e-38
776.48999 791.98499 -77.167198 1.8403113e-38
746.14203 -4493.9302 -66.121201 1.8403113e-38
711.138 -4517.1201 -53.3811 1.8403113e-38
711.65802 1420.59 -53.57 1.8403113e-38
726.04303 1424.9 -58.805901 1.8403113e-38
693.17401 -4732.1099 -46.842499 1.8403113e-38
684.61902 1416.27 -43.7286 1.8403113e-38
698.24902 1418.98 -48.689701 1.8403113e-38
669.96698 1409.59 -38.395802 1.8403113e-38
658.39203 1413.3 -34.182999 1.8403113e-38
631.13599 1404.97 -24.262699 1.8403113e-38
620.08801 1410.25 -20.241301 1.8403113e-38
644.97498 1410.17 -29.2994 1.8403113e-38
592.81403 1399.17 -10.3144 1.8403113e-38
606.39203 1404.78 -15.2566 1.8403113e-38
567.70398 1395.3 -1.17511 1.8403113e-38
579.573 1394.38 -5.49507 1.8403113e-38
543.40698 1393.86 7.6680799 1.8403113e-38
556.25 1398.0601 2.9935601 1.8403113e-38
518.71301 1389 16.6562 1.8403113e-38
531.59198 1394.4301 11.9685 1.8403113e-38
483.21799 1387.7 29.575199 1.8403113e-38
494.91599 1387.59 25.3176 1.8403113e-38
506.285 1385.41 21.1793 1.8403113e-38
458.76001 1379.6801 38.4772 1.8403113e-38
471.242 1385.73 33.933998 1.8403113e-38
434.87701 1373.15 47.1698 1.8403113e-38
447.569 1382.41 42.550201 1.8403113e-38
400.944 1376.42 59.520599 1.8403113e-38
411.90601 1372.12 55.530499 1.8403113e-38
423.496 1373.6801 51.312199 1.8403113e-38
377.039 1362.79 68.221001 1.8403113e-38
388.29999 1362.7 64.122299 1.8403113e-38
354.14801 1356.6899 76.552696 1.8403113e-38
365.85999 1363.78 72.290001 1.8403113e-38
331.54099 1351.15 84.781097 1.8403113e-38
343.01999 1357.46 80.603203 1.8403113e-38
320.827 1360.7 88.680496 1.8403113e-38
308.13101 -583.19702 93.301697 1.8403113e-38
308.24301 -525.99103 93.260696 1.8403113e-38
293.45401 -495.07501 98.643501 1.8403113e-38
296.85699 -484.81601 97.4049 1.8403113e-38
298.30701 1353.54 96.877296 1.8403113e-38
309.37201 1352.1801 92.849899 1.8403113e-38
269.28101 -521.97998 107.442 1.8403113e-38
265 -500 109 1.8403113e-38
272.905 -481.927 106.123 1.8403113e-38
288.65601 -480.341 100.39 1.8403113e-38
284.388 -472.54999 101.943 1.8403113e-38
276.53699 -468.83899 104.801 1.8403113e-38
279.42999 -439.73199 103.748 1.8403113e-38
265.00101 1355 109 1.8403113e-38
276.104 1353.95 104.959 1.8403113e-38
287.19 1352.79 100.924 1.8403113e-38
