# .PCD v0.7 - Point Cloud Data file format
VERSION 0.7
FIELDS x y z rgb
SIZE 4 4 4 4
TYPE F F F F
COUNT 1 1 1 1
WIDTH 351
HEIGHT 1
VIEWPOINT 0 0 0 1 0 0 0
POINTS 351
DATA ascii
1319.21 233.866 -290.18799 1.8403113e-38
1338.2 262.349 -293.55301 1.8403113e-38
1335.92 273.86301 -291.46799 1.8403113e-38
1344.63 288.34 -292.85199 1.8403113e-38
1341.21 299.646 -290.39801 1.8403113e-38
1355.1801 315.95999 -293.397 1.8403113e-38
1350.63 327.06201 -290.57101 1.8403113e-38
1358.8101 342.05701 -291.71399 1.8403113e-38
789.56799 -1311.98 -280.85101 1.8403113e-38
795.83698 -1297.4399 -281.384 1.8403113e-38
804.88 -1287.86 -283.436 1.8403113e-38
804.32703 -1262.55 -280.396 1.8403113e-38
812.02698 -1251.3 -281.79501 1.8403113e-38
817.03198 -1235.9301 -281.797 1.8403113e-38
826.00702 -1227.05 -283.90399 1.8403113e-38
827.51099 -1206.84 -282.14999 1.8403113e-38
833.01398 -1193.09 -282.508 1.8403113e-38
845.38501 -1189.67 -286.40399 1.8403113e-38
842.97101 -1164.8101 -282.771 1.8403113e-38
851.84998 -1156.55 -284.914 1.8403113e-38
865.146 -1154.4399 -289.27899 1.8403113e-38
853.48602 -1118.17 -281.16101 1.8403113e-38
856.78998 -1102.9399 -280.591 1.8403113e-38
866.29498 -1096.13 -283.11301 1.8403113e-38
864.58899 -1074.85 -280.12799 1.8403113e-38
873.28101 -1067.21 -282.27701 1.8403113e-38
877.71002 -1054.28 -282.354 1.8403113e-38
879.56097 -1038.39 -281.207 1.8403113e-38
882.43799 -1024.03 -280.586 1.8403113e-38
890.71301 -1016.24 -282.57401 1.8403113e-38
890.79498 -999.00201 -280.66199 1.8403113e-38
902.02301 -994.72198 -284.06699 1.8403113e-38
900.49402 -976.12701 -281.444 1.8403113e-38
909.02002 -968.89301 -283.582 1.8403113e-38
915.54602 -959.48602 -284.78101 1.8403113e-38
913.45697 -941.05701 -281.98401 1.8403113e-38
919.72803 -931.64502 -283.09601 1.8403113e-38
925.24402 -921.513 -283.86401 1.8403113e-38
926.61902 -907.323 -282.74301 1.8403113e-38
931.22101 -896.50897 -283.11899 1.8403113e-38
932.28699 -882.38898 -281.89899 1.8403113e-38
937.32898 -872.237 -282.50101 1.8403113e-38
938.789 -858.83301 -281.49799 1.8403113e-38
945.70898 -850.58698 -282.965 1.8403113e-38
947.61102 -837.85199 -282.19 1.8403113e-38
950.08197 -825.77802 -281.686 1.8403113e-38
954.57599 -815.58301 -282.09399 1.8403113e-38
960.41699 -806.59399 -283.104 1.8403113e-38
959.62201 -792.11499 -281.19901 1.8403113e-38
966.72699 -784.29901 -282.77899 1.8403113e-38
970.07898 -773.45697 -282.71899 1.8403113e-38
971.83197 -761.448 -281.974 1.8403113e-38
974.20599 -750.04602 -281.51199 1.8403113e-38
985.51202 -745.50403 -284.91501 1.8403113e-38
986.18903 -732.927 -283.733 1.8403113e-38
990.54797 -723.17798 -284.14499 1.8403113e-38
985.58899 -706.823 -280.58701 1.8403113e-38
997.45001 -702.53198 -284.20999 1.8403113e-38
996.85999 -689.52899 -282.54199 1.8403113e-38
1002.39 -680.81 -283.47501 1.8403113e-38
1011.79 -674.64001 -286.03299 1.8403113e-38
1007.69 -659.64398 -282.927 1.8403113e-38
1014.79 -645.90051 -283.83649 1.8403113e-38
1018.5 -630.14697 -283.34799 1.8403113e-38
1026.78 -623.17798 -285.42999 1.8403113e-38
1026.88 -611.36102 -284.13599 1.8403113e-38
1026.04 -599.12701 -282.46799 1.8403113e-38
1033.3 -591.54901 -284.12601 1.8403113e-38
1042.98 -585.23798 -286.76801 1.8403113e-38
1043.51 -573.914 -285.67499 1.8403113e-38
1048.09 -564.80798 -286.237 1.8403113e-38
1045.0601 -551.81097 -283.724 1.8403113e-38
1048.61 -542.27802 -283.88199 1.8403113e-38
1052.09 -532.72302 -284.01001 1.8403113e-38
1059.73 -525.16998 -285.80399 1.8403113e-38
1058.8 -513.55402 -284.173 1.8403113e-38
1061.17 -503.552 -283.86899 1.8403113e-38
1061.73 -492.78601 -282.853 1.8403113e-38
1065.65 -483.54199 -283.16699 1.8403113e-38
1072.95 -475.72101 -284.815 1.8403113e-38
1073.25 -464.95499 -283.70599 1.8403113e-38
1079.55 -456.65799 -284.95499 1.8403113e-38
1084.05 -447.603 -285.492 1.8403113e-38
1090.23 -439.164 -286.68201 1.8403113e-38
1086.65 -427.08801 -284.08301 1.8403113e-38
1090.03 -417.638 -284.18799 1.8403113e-38
1097.77 -409.69601 -285.97299 1.8403113e-38
1094.77 -398.05801 -283.62399 1.8403113e-38
1097.9 -388.543 -283.63901 1.8403113e-38
1104.25 -374.7735 -284.28552 1.8403113e-38
1118.5601 -363.30399 -287.94901 1.8403113e-38
1115.99 -352.04001 -285.79199 1.8403113e-38
1128.72 -345.08401 -289.41599 1.8403113e-38
1126.89 -334.07501 -287.54099 1.8403113e-38
1126.77 -323.59201 -286.32001 1.8403113e-38
1130.21 -314.034 -286.436 1.8403113e-38
1131.74 -304.01001 -285.83801 1.8403113e-38
1141.45 -295.84201 -288.27802 1.8403113e-38
1137.3199 -284.54901 -285.57599 1.8403113e-38
1140.4399 -274.87399 -285.57001 1.8403113e-38
1148.11 -266.07101 -287.23199 1.8403113e-38
1142.77 -254.73399 -284.10699 1.8403113e-38
1151.21 -245.978 -286.04501 1.8403113e-38
1154.96 -236.31 -286.25299 1.8403113e-38
1155.84 -226.15401 -285.41501 1.8403113e-38
1157.5601 -216.14 -284.88599 1.8403113e-38
1160.14 -206.244 -284.66299 1.8403113e-38
1166.37 -196.80299 -285.758 1.8403113e-38
1169.73 -186.92799 -285.80801 1.8403113e-38
1166.45 -176.282 -283.47601 1.8403113e-38
1172.45 -166.664 -284.47101 1.8403113e-38
1173.6899 -156.519 -283.75699 1.8403113e-38
1177.66 -146.60001 -284.01501 1.8403113e-38
1182.5 -136.692 -284.573 1.8403113e-38
1180.66 -126.283 -282.767 1.8403113e-38
1192.87 -116.7 -285.914 1.8403113e-38
1202.1801 -106.775 -288.01999 1.8403113e-38
1193.5 -96.032501 -283.80499 1.8403113e-38
1196.99 -85.797096 -283.85999 1.8403113e-38
1199.45 -75.490196 -283.552 1.8403113e-38
1201.83 -65.147003 -283.211 1.8403113e-38
1206.95 -54.767799 -283.81799 1.8403113e-38
1212.9399 -44.293098 -284.71201 1.8403113e-38
1212.23 -33.837502 -283.28799 1.8403113e-38
1217.1 -23.2439 -283.78299 1.8403113e-38
1216.22 -12.775 -282.297 1.8403113e-38
1225.64 -1.84797 -284.33099 1.8403113e-38
1224.58 8.6743202 -282.77899 1.8403113e-38
1231.9399 19.722099 -284.08301 1.8403113e-38
1230.7 30.277201 -282.466 1.8403113e-38
1233.16 41.121201 -282.09399 1.8403113e-38
1231.74 51.662498 -280.418 1.8403113e-38
1239.6801 63.1329 -281.87399 1.8403113e-38
1252.4301 86.174103 -283.69299 1.8403113e-38
1244.99 96.113701 -280.00101 1.8403113e-38
1256.3101 108.52 -282.521 1.8403113e-38
1278.8 122.8 -288.698 1.8403113e-38
1259.8101 131.02299 -281.20001 1.8403113e-38
1263.29 142.642 -281.09799 1.8403113e-38
1272.3 155.317 -282.789 1.8403113e-38
1270.89 166.26401 -281.07001 1.8403113e-38
1274.0699 178.101 -280.83801 1.8403113e-38
1305.17 195.701 -289.621 1.8403113e-38
1307.17 207.729 -288.95901 1.8403113e-38
1310.92 220.21899 -288.853 1.8403113e-38
1318.1 245.439 -288.49799 1.8403113e-38
1355.87 353.73199 -289.384 1.8403113e-38
1357.4 366.871 -288.43301 1.8403113e-38
1363.35 381.59698 -288.836 1.8403113e-38
1370.97 397.08701 -289.73199 1.8403113e-38
1370.3 409.82501 -288.065 1.8403113e-38
1374.02 424.23801 -287.73099 1.8403113e-38
1379.41 439.42499 -287.88599 1.8403113e-38
1382.85 454.04001 -287.43201 1.8403113e-38
1388.83 469.81699 -287.72699 1.8403113e-38
1390.1899 483.909 -286.61301 1.8403113e-38
1393.2 498.802 -285.978 1.8403113e-38
1392.52 512.258 -284.228 1.8403113e-38
681.31403 -1584.05 -274.004 1.8403113e-38
691.23798 -1570.7 -275.936 1.8403113e-38
699.49103 -1553.7 -276.879 1.8403113e-38
705.59698 -1532.21 -276.57401 1.8403113e-38
711.78998 -1511.63 -276.401 1.8403113e-38
719.685 -1495.49 -277.31699 1.8403113e-38
724.93103 -1474.03 -276.71799 1.8403113e-38
732.76703 -1458.75 -277.70999 1.8403113e-38
736.61798 -1435.58 -276.435 1.8403113e-38
744.84601 -1422.02 -277.75699 1.8403113e-38
751.16302 -1404.97 -278.02399 1.8403113e-38
757.69598 -1388.78 -278.46301 1.8403113e-38
762.66602 -1370.01 -278.07101 1.8403113e-38
770.58002 -1357.23 -279.37201 1.8403113e-38
774.62598 -1337.64 -278.56699 1.8403113e-38
781.23102 -1323.14 -279.22101 1.8403113e-38
1236.1899 73.500702 -279.50201 1.8403113e-38
1323.7 495.80801 -262.258 1.8403113e-38
1799.11 2092.8899 -247.054 1.8403113e-38
1770.6801 2093.97 -237.09399 1.8403113e-38
1203.27 454.74701 -225.19501 1.8403113e-38
1742.96 2095.48 -227.33 1.8403113e-38
1172.16 452.41101 -214.69 1.8403113e-38
1174.38 465.21899 -214.015 1.8403113e-38
1170.37 475.15601 -211.509 1.8403113e-38
1717.14 2099.01 -217.994 1.8403113e-38
1166.27 485.052 -208.978 1.8403113e-38
1171.61 499.70401 -209.175 1.8403113e-38
1153.53 502.50201 -202.604 1.8403113e-38
1687.2 2096.6599 -207.89301 1.8403113e-38
1126.05 500.04099 -193.369 1.8403113e-38
1654.45 2089.9399 -197.315 1.8403113e-38
1625.42 2087.6101 -187.528 1.8403113e-38
1055.97 474.15601 -172.026 1.8403113e-38
1579.75 2098.97 -170.44501 1.8403113e-38
1606.91 2099.49 -179.784 1.8403113e-38
1033.99 473.19601 -164.526 1.8403113e-38
996.177 473.56699 -151.396 1.8403113e-38
1015.48 473.772 -158.054 1.8403113e-38
1492.4 2010.42 -150.17599 1.8403113e-38
985.76501 483.517 -146.67151 1.8403113e-38
1292.22 1436.86 -145.44099 1.8403113e-38
937.026 480.38199 -130.155 1.8403113e-38
960.29199 484.20099 -137.778 1.8403113e-38
1413.8199 1931.2 -131.89301 1.8403113e-38
1447.78 2018.28 -133.84801 1.8403113e-38
1475.53 2098.5601 -134.41499 1.8403113e-38
910.58301 474.10199 -121.709 1.8403113e-38
1189.45 1288.1801 -126.604 1.8403113e-38
1446.77 2093.0701 -125.078 1.8403113e-38
902.328 478.978 -118.302 1.8403113e-38
887.37402 489.47 -111.946 1.8403113e-38
898.12701 486.41199 -116.012 1.8403113e-38
872.30798 499.564 -105.595 1.8403113e-38
883.88898 497.31201 -109.857 1.8403113e-38
867.13 506.151 -103.061 1.8403113e-38
863.48798 513.823 -100.937 1.8403113e-38
1367.3101 2006.25 -107.346 1.8403113e-38
842.41101 508.758 -94.2117 1.8403113e-38
1021.02 1066.55 -93.251999 1.8403113e-38
1343.23 2005.54 -99.093399 1.8403113e-38
1325.96 2015.62 -91.981003 1.8403113e-38
806.55603 492.24701 -83.659599 1.8403113e-38
806.11902 501.754 -82.4384 1.8403113e-38
805.58002 511.289 -81.178596 1.8403113e-38
806.479 522.06097 -80.277397 1.8403113e-38
1337.13 2073.52 -89.330399 1.8403113e-38
1324.84 2092.99 -82.883202 1.8403113e-38
358.55899 -792.53699 -73.200897 1.8403113e-38
801.89398 528.599 -77.954498 1.8403113e-38
787.26599 537.15997 -71.927498 1.8403113e-38
804.10303 540.66498 -77.360901 1.8403113e-38
827.073 637.82599 -74.375702 1.8403113e-38
853.21301 674.07599 -79.343399 1.8403113e-38
851.66602 685.05798 -77.571999 1.8403113e-38
862.76099 708.38397 -78.787003 1.8403113e-38
857.349 716.06299 -76.049202 1.8403113e-38
861.64001 733.45502 -75.576897 1.8403113e-38
860.16302 745.34698 -73.727303 1.8403113e-38
854.42603 753.00702 -70.879303 1.8403113e-38
859.51801 772.065 -70.496696 1.8403113e-38
1303.89 2097.6699 -75.104797 1.8403113e-38
762.58301 547.04901 -62.271198 1.8403113e-38
781.04797 542.25098 -69.202301 1.8403113e-38
763.66498 558.39502 -61.3685 1.8403113e-38
780.01801 551.745 -67.777397 1.8403113e-38
781.41498 584.95599 -64.522598 1.8403113e-38
856.24902 782.60797 -68.178703 1.8403113e-38
854.20203 794.60101 -66.120399 1.8403113e-38
859.31702 814.67798 -65.630798 1.8403113e-38
858.896 828.98798 -63.874699 1.8403113e-38
858.94897 844.091 -62.1931 1.8403113e-38
878.18903 881.76898 -64.612 1.8403113e-38
1277.5699 2092.5601 -66.5709 1.8403113e-38
1251.89 2088 -58.196899 1.8403113e-38
1234.4301 2098.0701 -51.0191 1.8403113e-38
307.798 -677.74597 -42.710899 1.8403113e-38
1208.9399 2092.98 -42.7696 1.8403113e-38
300.17899 -673.67902 -39.6161 1.8403113e-38
1188.67 2097.3301 -35.261501 1.8403113e-38
281.108 -637.36603 -28.9277 1.8403113e-38
1166.13 2097.03 -27.495501 1.8403113e-38
-245.08299 -2150.3401 -17.087799 1.8403113e-38
262.992 -601.651 -18.637501 1.8403113e-38
1119.54 2092.0801 -11.925 1.8403113e-38
1144.5601 2098.26 -19.8909 1.8403113e-38
-250.242 -2072.1101 -6.4962001 1.8403113e-38
195.369 -664.71198 -2.32898 1.8403113e-38
200.061 -661.43597 -3.5841999 1.8403113e-38
1098.99 2094.6201 -4.5263801 1.8403113e-38
-262.737 -2045.1 0.86864197 1.8403113e-38
195.202 -614.901 3.3352699 1.8403113e-38
228.629 -529.30402 1.39942 1.8403113e-38
232.298 -526.771 0.41459501 1.8403113e-38
214.811 -513.724 7.93606 1.8403113e-38
220.15401 -516.90503 5.7284899 1.8403113e-38
1077.62 2095.1399 2.9288399 1.8403113e-38
189.797 -569.49298 10.3169 1.8403113e-38
169.119 -556.75897 18.9076 1.8403113e-38
187.737 -541.46503 14.1847 1.8403113e-38
190.162 -533.55402 14.2357 1.8403113e-38
193.547 -513.612 15.3086 1.8403113e-38
204.19449 -513.95703 11.58435 1.8403113e-38
208.96899 -508.603 10.5344 1.8403113e-38
1031.78 2088.2 18.0128 1.8403113e-38
1052.98 2088.1599 10.6723 1.8403113e-38
19.8759 -930.71002 28.4757 1.8403113e-38
42.485802 -907.14099 23.3025 1.8403113e-38
88.8592 -772.54498 22.400499 1.8403113e-38
76.846603 -761.28198 27.826 1.8403113e-38
82.803802 -766.94397 25.1269 1.8403113e-38
149.65601 -518.89203 29.906401 1.8403113e-38
154.41451 -511.73752 29.064449 1.8403113e-38
-6.2322202 -981.45099 31.801399 1.8403113e-38
12.4873 -932.46503 30.8356 1.8403113e-38
7.4907098 -902.362 35.953201 1.8403113e-38
32.635101 -823.49701 36.126499 1.8403113e-38
39.4758 -812.646 34.98 1.8403113e-38
91.604698 -670.95398 32.884602 1.8403113e-38
105.366 -566.224 39.909199 1.8403113e-38
112.254 -545.46698 39.861198 1.8403113e-38
118.861 -528.58502 39.4743 1.8403113e-38
124.23849 -522.75299 38.2696 1.8403113e-38
130.688 -526.67798 35.5952 1.8403113e-38
144.36501 -523.552 31.213051 1.8403113e-38
135.248 -515.81348 35.23975 1.8403113e-38
2.0314901 -809.28302 48.319199 1.8403113e-38
71.127403 -660.15997 41.187302 1.8403113e-38
56.8913 -628.68903 49.657001 1.8403113e-38
93.382599 -587.284 41.6866 1.8403113e-38
96.944397 -569.06598 42.504101 1.8403113e-38
101.221 -568.65302 41.0704 1.8403113e-38
108.166 -545.97498 41.219002 1.8403113e-38
115.001 -530.13501 40.6362 1.8403113e-38
743.20801 1477.4301 49.152802 1.8403113e-38
62.549198 -578.91101 53.3013 1.8403113e-38
674.013 1350.75 58.844501 1.8403113e-38
-86.569099 -911.40198 67.492699 1.8403113e-38
-20.903299 -705.06299 67.9879 1.8403113e-38
-14.0674 -694.80499 66.776398 1.8403113e-38
-6.1559 -674.58002 66.314301 1.8403113e-38
0.367805 -663.18903 65.338402 1.8403113e-38
10.7353 -661.047 61.990898 1.8403113e-38
6.0495 -657.68103 63.991699 1.8403113e-38
67.693199 -497.29901 60.706501 1.8403113e-38
645.66302 1347.74 68.318497 1.8403113e-38
660.19397 1350.24 63.570801 1.8403113e-38
-33.630798 -652.90997 78.263199 1.8403113e-38
615.38202 1338.53 77.763496 1.8403113e-38
630.46802 1343.22 73.069397 1.8403113e-38
-47.656898 -672.83801 80.875099 1.8403113e-38
-44.428101 -630.78198 84.490997 1.8403113e-38
-47.9035 -601.59198 88.979401 1.8403113e-38
-39.894299 -585.87598 87.976196 1.8403113e-38
587.28601 1333.35 86.905098 1.8403113e-38
601.11902 1335.55 82.364601 1.8403113e-38
-114.533 -720.21198 98.691002 1.8403113e-38
-76.306 -601.07599 98.8685 1.8403113e-38
-55.0457 -591.87402 92.545303 1.8403113e-38
-61.893002 -582.05103 96.021103 1.8403113e-38
-57.5536 -583.09198 94.401901 1.8403113e-38
-49.9562 -589.92603 91.002998 1.8403113e-38
-63.935299 -572.26703 97.829201 1.8403113e-38
561.487 1333.22 95.8209 1.8403113e-38
573.17999 1330.0601 91.417503 1.8403113e-38
-366.487 -1403.4399 109 1.8403113e-38
-353.604 -1401.27 104.785 1.8403113e-38
-172.84599 -852.17798 104.022 1.8403113e-38
-118.005 -692.19501 103.046 1.8403113e-38
-111.655 -689.87 101.11 1.8403113e-38
519.78802 1322.08 109 1.8403113e-38
534.23297 1327.84 104.648 1.8403113e-38
547.82397 1330.6 100.255 1.8403113e-38
