# .PCD v0.7 - Point Cloud Data file format
VERSION 0.7
FIELDS x y z rgb
SIZE 4 4 4 4
TYPE F F F F
COUNT 1 1 1 1
WIDTH 348
HEIGHT 1
VIEWPOINT 0 0 0 1 0 0 0
POINTS 348
DATA ascii
1281.65 89.668297 -293.41699 1.8403113e-38
1322 234.51199 -291.08099 1.8403113e-38
1326.45 247.45399 -291.164 1.8403113e-38
1332.64 260.95499 -291.784 1.8403113e-38
1347.95 276.992 -295.27899 1.8403113e-38
1342.78 287.84201 -292.26901 1.8403113e-38
1355.96 303.76599 -295.039 1.8403113e-38
1356.1 316.22601 -293.686 1.8403113e-38
1356.0601 341.20999 -290.858 1.8403113e-38
784.06 -1328.2 -280.76999 1.8403113e-38
789.56799 -1311.98 -280.85101 1.8403113e-38
795.35101 -1296.6 -281.12201 1.8403113e-38
800.44397 -1280.4 -281.061 1.8403113e-38
808.32599 -1269.15 -282.52301 1.8403113e-38
814.56097 -1255.4 -283.133 1.8403113e-38
819.60101 -1240 -283.14499 1.8403113e-38
823.81799 -1201.21 -280.23801 1.8403113e-38
833.01398 -1193.09 -282.508 1.8403113e-38
840.51398 -1182.52 -283.914 1.8403113e-38
845.711 -1168.75 -284.16299 1.8403113e-38
851.29498 -1155.76 -284.634 1.8403113e-38
864.02301 -1152.88 -288.715 1.8403113e-38
855.19 -1120.49 -282.01199 1.8403113e-38
859.08801 -1106.01 -281.73199 1.8403113e-38
867.45697 -1097.65 -283.68701 1.8403113e-38
866.93903 -1077.87 -281.28201 1.8403113e-38
874.46899 -1068.71 -282.85699 1.8403113e-38
874.70801 -1050.55 -280.896 1.8403113e-38
882.59497 -1042.09 -282.673 1.8403113e-38
889.18103 -1032.09 -283.828 1.8403113e-38
892.57098 -1018.42 -283.46201 1.8403113e-38
892.04602 -1000.44 -281.25699 1.8403113e-38
896.33801 -988.28497 -281.37399 1.8403113e-38
901.76898 -977.54498 -282.04599 1.8403113e-38
903.87 -963.26801 -281.16599 1.8403113e-38
910.99701 -954.60797 -282.65799 1.8403113e-38
914.76898 -942.43799 -282.59399 1.8403113e-38
920.39001 -932.32898 -283.40201 1.8403113e-38
923.909 -920.15698 -283.25 1.8403113e-38
929.31299 -910.00897 -283.978 1.8403113e-38
933.25897 -898.505 -284.04901 1.8403113e-38
935.02698 -885.02502 -283.14401 1.8403113e-38
938.01898 -872.88898 -282.81299 1.8403113e-38
947.14398 -866.58197 -285.26199 1.8403113e-38
946.41101 -851.22601 -283.28 1.8403113e-38
949.02502 -839.117 -282.82199 1.8403113e-38
958.63501 -833.28601 -285.492 1.8403113e-38
957.44897 -818.05798 -283.367 1.8403113e-38
962.58801 -808.43103 -284.06201 1.8403113e-38
961.80798 -793.93103 -282.16 1.8403113e-38
968.19501 -785.49597 -283.422 1.8403113e-38
973.03497 -775.823 -284.008 1.8403113e-38
980.01898 -767.87598 -285.53101 1.8403113e-38
975.70502 -751.20001 -282.16101 1.8403113e-38
986.26703 -746.07397 -285.23999 1.8403113e-38
988.46698 -734.61603 -284.71201 1.8403113e-38
994.36902 -725.95801 -285.78 1.8403113e-38
995.586 -713.95599 -284.85101 1.8403113e-38
994.35498 -700.36603 -282.89499 1.8403113e-38
997.638 -690.06299 -282.87201 1.8403113e-38
999.25702 -678.70203 -282.15302 1.8403113e-38
1007.06 -671.52301 -284.04599 1.8403113e-38
1010.07 -661.17999 -283.923 1.8403113e-38
1011.38 -649.82703 -283.10001 1.8403113e-38
1014.18 -639.49701 -282.90701 1.8403113e-38
1020.11 -631.12598 -284.01501 1.8403113e-38
1028.4 -624.14203 -286.099 1.8403113e-38
1025.25 -610.41199 -283.465 1.8403113e-38
1033.41 -603.32703 -285.48999 1.8403113e-38
1034.9399 -592.46698 -284.79901 1.8403113e-38
1047.9399 -587.94501 -288.789 1.8403113e-38
1046 -575.245 -286.68701 1.8403113e-38
1042.25 -561.75702 -283.87201 1.8403113e-38
1048.41 -553.52197 -285.077 1.8403113e-38
1050.3 -543.11798 -284.56 1.8403113e-38
1051.24 -532.31097 -283.67099 1.8403113e-38
1062.28 -526.383 -286.823 1.8403113e-38
1059.65 -513.95001 -284.513 1.8403113e-38
1063.74 -504.71701 -284.89001 1.8403113e-38
1065.17 -494.30801 -284.21399 1.8403113e-38
1066.51 -483.914 -283.508 1.8403113e-38
1073.8199 -476.086 -285.15601 1.8403113e-38
1074.99 -465.66699 -284.388 1.8403113e-38
1081.3 -457.354 -285.638 1.8403113e-38
1084.9301 -447.94299 -285.83301 1.8403113e-38
1084.08 -436.84201 -284.29001 1.8403113e-38
1087.53 -427.41199 -284.42499 1.8403113e-38
1093.5699 -418.89899 -285.556 1.8403113e-38
1094.21 -408.46701 -284.60501 1.8403113e-38
1097.4399 -398.95401 -284.64999 1.8403113e-38
1106.84 -391.44901 -287.05899 1.8403113e-38
1106.49 -375.46649 -285.1405 1.8403113e-38
1119.46 -363.569 -288.29099 1.8403113e-38
1117.8 -352.55399 -286.47601 1.8403113e-38
1122.38 -343.34201 -287.02399 1.8403113e-38
1128.7 -334.556 -288.224 1.8403113e-38
1130.41 -324.51999 -287.686 1.8403113e-38
1130.21 -314.034 -286.436 1.8403113e-38
1139.98 -305.94501 -288.90701 1.8403113e-38
1136.86 -294.80899 -286.57401 1.8403113e-38
1141.91 -285.539 -287.27802 1.8403113e-38
1145.05 -275.82199 -287.271 1.8403113e-38
1141.65 -264.80301 -284.853 1.8403113e-38
1152.01 -256.45901 -287.50201 1.8403113e-38
1152.14 -246.14101 -286.384 1.8403113e-38
1157.74 -236.776 -287.26901 1.8403113e-38
1160.49 -226.888 -287.10599 1.8403113e-38
1158.5 -216.27901 -285.22299 1.8403113e-38
1163.87 -206.763 -286.013 1.8403113e-38
1171.04 -197.408 -287.44199 1.8403113e-38
1171.6 -187.153 -286.48001 1.8403113e-38
1166.45 -176.282 -283.47601 1.8403113e-38
1177.14 -167.14 -286.146 1.8403113e-38
1175.5699 -156.692 -284.42599 1.8403113e-38
1181.42 -146.912 -285.35101 1.8403113e-38
1177.8 -136.345 -282.90701 1.8403113e-38
1179.72 -126.223 -282.435 1.8403113e-38
1191.9301 -116.648 -285.582 1.8403113e-38
1195.59 -106.472 -285.702 1.8403113e-38
1198.22 -96.2052 -285.457 1.8403113e-38
1201.71 -85.926498 -285.508 1.8403113e-38
1197.5601 -75.455803 -282.89499 1.8403113e-38
1203.72 -65.164001 -283.867 1.8403113e-38
1207.9 -54.7677 -284.14499 1.8403113e-38
1206.33 -44.3549 -282.42801 1.8403113e-38
1215.0699 -33.785 -284.26401 1.8403113e-38
1218.05 -23.217699 -284.10699 1.8403113e-38
1219.05 -12.6705 -283.26801 1.8403113e-38
1218.08 -2.1961701 -281.75201 1.8403113e-38
1226.47 8.7787104 -283.422 1.8403113e-38
1224.38 19.2353 -281.51999 1.8403113e-38
1233.54 30.4858 -283.42401 1.8403113e-38
1234.1 41.199299 -282.41199 1.8403113e-38
1233.63 51.836102 -281.052 1.8403113e-38
1241.5601 63.323799 -282.50601 1.8403113e-38
1238.08 73.7089 -280.13101 1.8403113e-38
1246.88 96.3563 -280.62601 1.8403113e-38
1252.54 108 -281.276 1.8403113e-38
1280.6801 123.077 -289.31799 1.8403113e-38
1263.29 142.642 -281.09799 1.8403113e-38
1273.24 155.48199 -283.09601 1.8403113e-38
1270.89 166.26401 -281.07001 1.8403113e-38
1274.0699 178.101 -280.83801 1.8403113e-38
1302.37 195.132 -288.715 1.8403113e-38
1309.03 208.12601 -289.56 1.8403113e-38
1313.71 220.839 -289.75 1.8403113e-38
1343.28 324.86801 -288.276 1.8403113e-38
1345.8199 350.53201 -286.26501 1.8403113e-38
1358.3101 367.17001 -288.715 1.8403113e-38
1366.99 382.827 -289.957 1.8403113e-38
1365.53 395.19299 -288.061 1.8403113e-38
1367.58 408.854 -287.23401 1.8403113e-38
1374.92 424.57001 -288.00601 1.8403113e-38
1374.91 437.72299 -286.51999 1.8403113e-38
1384.64 454.737 -287.974 1.8403113e-38
1382.5699 467.32101 -285.84 1.8403113e-38
1391.09 484.27301 -286.88101 1.8403113e-38
1394.09 499.17401 -286.24399 1.8403113e-38
1393.41 512.63898 -284.491 1.8403113e-38
681.67499 -1584.96 -274.23001 1.8403113e-38
688.29303 -1563.49 -274.10501 1.8403113e-38
697.98798 -1550.11 -275.95499 1.8403113e-38
706.36401 -1534 -277.04099 1.8403113e-38
712.57098 -1513.41 -276.87201 1.8403113e-38
720.88 -1498.15 -278.02899 1.8403113e-38
724.93103 -1474.03 -276.71799 1.8403113e-38
733.59302 -1460.51 -278.19299 1.8403113e-38
737.45898 -1437.33 -276.923 1.8403113e-38
746.55798 -1425.5 -278.741 1.8403113e-38
752.46899 -1407.5699 -278.76901 1.8403113e-38
755.92499 -1385.34 -277.46301 1.8403113e-38
763.56598 -1371.73 -278.57599 1.8403113e-38
770.58002 -1357.23 -279.37201 1.8403113e-38
776.48297 -1341.03 -279.59201 1.8403113e-38
818.19598 -1214.91 -279.83401 1.8403113e-38
1254.17 130.14 -279.34698 1.8403113e-38
1319.28 493.86499 -260.948 1.8403113e-38
1801.59 2095.98 -247.567 1.8403113e-38
1771.91 2095.53 -237.345 1.8403113e-38
1202.39 454.35101 -224.935 1.8403113e-38
1745.4 2098.6101 -227.82001 1.8403113e-38
1176.55 454.43399 -215.98 1.8403113e-38
1166.51 461.50699 -211.71001 1.8403113e-38
1167.75 473.89499 -210.746 1.8403113e-38
1713.52 2094.27 -217.27499 1.8403113e-38
1159.33 481.62601 -206.961 1.8403113e-38
1148.37 499.83899 -201.116 1.8403113e-38
1164.6899 496.216 -207.174 1.8403113e-38
1687.79 2097.46 -208.00999 1.8403113e-38
1127.77 500.944 -193.86099 1.8403113e-38
1656.8101 2093.1399 -197.771 1.8403113e-38
1624.25 2086.01 -187.30499 1.8403113e-38
1059.39 475.99301 -173.002 1.8403113e-38
1580.3199 2099.78 -170.55 1.8403113e-38
1606.91 2099.49 -179.784 1.8403113e-38
1033.14 472.729 -164.285 1.8403113e-38
1000.39 475.978 -152.58299 1.8403113e-38
1016.33 474.24701 -158.293 1.8403113e-38
968.63 478.68201 -141.285 1.8403113e-38
989.53003 480.39499 -148.326 1.8403113e-38
1284.0601 1426.89 -143.74001 1.8403113e-38
1481.13 1994.02 -148.119 1.8403113e-38
938.68201 481.40701 -130.612 1.8403113e-38
961.12402 484.70499 -138.009 1.8403113e-38
1422.1801 1943.5699 -133.39301 1.8403113e-38
1435.6801 2000.04 -131.711 1.8403113e-38
1476.0699 2099.3999 -134.509 1.8403113e-38
912.23102 475.142 -122.162 1.8403113e-38
912.16302 485.30301 -120.995 1.8403113e-38
1194.52 1294.28 -127.673 1.8403113e-38
1447.3 2093.9099 -125.169 1.8403113e-38
894.86499 484.27399 -115.123 1.8403113e-38
886.8465 494.20749 -111.2295 1.8403113e-38
872.51953 504.819 -105.0765 1.8403113e-38
863.48798 513.823 -100.937 1.8403113e-38
1374.73 2018.0601 -108.586 1.8403113e-38
840.04303 507.026 -93.587097 1.8403113e-38
1037.66 1086.22 -96.797897 1.8403113e-38
1331.2 1986.03 -97.123802 1.8403113e-38
1334.22 2029.26 -93.304901 1.8403113e-38
807.341 492.83099 -83.865402 1.8403113e-38
808.68201 513.68298 -81.982697 1.8403113e-38
820.16199 512.40302 -86.100304 1.8403113e-38
1338.66 2076.0901 -89.569901 1.8403113e-38
1325.34 2093.8501 -82.960098 1.8403113e-38
786.59998 526.42499 -72.905296 1.8403113e-38
803.41345 524.72803 -78.916107 1.8403113e-38
794.07001 542.79303 -73.648804 1.8403113e-38
823.44598 634.49799 -73.495003 1.8403113e-38
853.93298 674.74799 -79.516998 1.8403113e-38
859.52698 692.51898 -79.453201 1.8403113e-38
859.21503 704.961 -77.944901 1.8403113e-38
858.052 716.75403 -76.214996 1.8403113e-38
863.03601 734.849 -75.903297 1.8403113e-38
862.24103 747.45599 -74.209 1.8403113e-38
855.79999 754.42603 -71.195198 1.8403113e-38
860.19897 772.78003 -70.652 1.8403113e-38
1300.42 2091.6101 -74.586601 1.8403113e-38
778.04303 539.72101 -68.447197 1.8403113e-38
774.79602 547.27002 -66.473503 1.8403113e-38
768.51099 552.216 -63.741299 1.8403113e-38
771.02301 564.91998 -63.180901 1.8403113e-38
784.33698 587.59198 -65.237503 1.8403113e-38
857.59998 784.05103 -68.483902 1.8403113e-38
856.211 796.78302 -66.570198 1.8403113e-38
860.64398 816.14502 -65.925301 1.8403113e-38
861.52802 831.94397 -64.452797 1.8403113e-38
877.20398 864.94702 -66.164398 1.8403113e-38
879.48102 883.27002 -64.890297 1.8403113e-38
1278.0601 2093.4199 -66.641998 1.8403113e-38
331.38699 -722.59302 -55.923302 1.8403113e-38
1231.11 2091.9199 -50.562302 1.8403113e-38
1253.8199 2091.5 -58.4697 1.8403113e-38
308.48901 -679.57001 -43.155201 1.8403113e-38
1210.8101 2096.51 -43.018902 1.8403113e-38
295.45401 -660.86499 -36.5383 1.8403113e-38
283.41599 -643.79602 -30.4506 1.8403113e-38
1184.0699 2088.47 -34.667599 1.8403113e-38
1162.96 2090.8 -27.100401 1.8403113e-38
-245.83 -2155.28 -17.384701 1.8403113e-38
1119.97 2092.98 -11.9756 1.8403113e-38
1141.4399 2092 -19.5163 1.8403113e-38
-249.14 -2065.21 -6.1010499 1.8403113e-38
203.72 -678.76398 -6.80089 1.8403113e-38
194.198 -658.92297 -1.27206 1.8403113e-38
242.058 -541.72498 -4.6468601 1.8403113e-38
1095.97 2088.3101 -4.1931801 1.8403113e-38
-260.58401 -2032.3 1.56419 1.8403113e-38
197.73801 -626.427 1.16035 1.8403113e-38
228.936 -530.23297 1.1888601 1.8403113e-38
230.412 -521.21997 1.69207 1.8403113e-38
209.81799 -511.41501 9.9240398 1.8403113e-38
215.392 -515.59302 7.5243902 1.8403113e-38
220.453 -517.83698 5.5202799 1.8403113e-38
1079.3101 2098.76 2.7502699 1.8403113e-38
189.13901 -566.61902 10.8682 1.8403113e-38
188.192 -543.37598 13.8122 1.8403113e-38
188.27901 -525.927 15.7458 1.8403113e-38
193.62834 -513.92896 15.244866 1.8403113e-38
204.73651 -515.84052 11.1847 1.8403113e-38
1053.39 2089.0701 10.6306 1.8403113e-38
1033.01 2090.9299 17.8967 1.8403113e-38
19.757601 -932.698 28.2929 1.8403113e-38
43.726101 -871.34302 26.902399 1.8403113e-38
89.022301 -779.49298 21.562 1.8403113e-38
76.880699 -766.25 27.255199 1.8403113e-38
82.818901 -767.93701 25.009899 1.8403113e-38
93.150703 -719.56 26.8787 1.8403113e-38
166.125 -541.289 21.684999 1.8403113e-38
149.81799 -519.86499 29.740601 1.8403113e-38
155.2085 -516.09998 28.298851 1.8403113e-38
-7.4062901 -995.35303 30.643101 1.8403113e-38
12.0828 -938.42798 30.304399 1.8403113e-38
9.6842499 -873.552 38.436699 1.8403113e-38
31.1579 -852.33002 33.392502 1.8403113e-38
38.75 -829.54999 33.328701 1.8403113e-38
105.495 -568.20203 39.641899 1.8403113e-38
112.335 -546.45398 39.722099 1.8403113e-38
115.892 -539.99298 39.217899 1.8403113e-38
118.764 -527.60101 39.6189 1.8403113e-38
124.279 -523.24597 38.199997 1.8403113e-38
130.078 -521.77502 36.358299 1.8403113e-38
146.548 -524.60797 30.3386 1.8403113e-38
135.582 -518.2605 34.8489 1.8403113e-38
141.45 -517.61603 32.8904 1.8403113e-38
2.76811 -801.34198 48.958 1.8403113e-38
56.812698 -631.672 49.3484 1.8403113e-38
71.182503 -622.396 45.418598 1.8403113e-38
61.902802 -614.703 49.496399 1.8403113e-38
93.6213 -593.23102 40.934502 1.8403113e-38
96.752197 -565.104 43.016602 1.8403113e-38
100.996 -564.69397 41.594002 1.8403113e-38
108.239 -546.96301 41.0826 1.8403113e-38
740.00098 1470.11 49.438801 1.8403113e-38
675.19299 1353.5 58.746201 1.8403113e-38
-85.296097 -904.52698 67.825897 1.8403113e-38
-16.920551 -695.98151 67.6315 1.8403113e-38
-7.0299702 -681.50897 65.836998 1.8403113e-38
9.3312302 -674.935 60.913799 1.8403113e-38
0.13444 -665.16998 65.196198 1.8403113e-38
6.0495 -657.68103 63.991699 1.8403113e-38
67.732002 -493.32199 61.140598 1.8403113e-38
646.41998 1349.59 68.264801 1.8403113e-38
660.19397 1350.24 63.570801 1.8403113e-38
-32.7621 -647.99298 78.515999 1.8403113e-38
616.47198 1341.33 77.700897 1.8403113e-38
631.21002 1345.08 73.021698 1.8403113e-38
-45.1875 -660.08801 81.455399 1.8403113e-38
-39.081402 -604.341 85.616402 1.8403113e-38
-43.557549 -592.2735 88.524002 1.8403113e-38
587.98102 1335.22 86.875298 1.8403113e-38
601.47498 1336.48 82.346703 1.8403113e-38
-118.043 -732.72803 98.497101 1.8403113e-38
-82.5951 -624.23297 98.438904 1.8403113e-38
-58.7285 -607.43701 92.068398 1.8403113e-38
-51.2892 -595.77197 90.806396 1.8403113e-38
-64.692902 -583.92749 96.779007 1.8403113e-38
-57.5536 -583.09198 94.401901 1.8403113e-38
559.15997 1326.62 95.883499 1.8403113e-38
573.17999 1330.0601 91.417503 1.8403113e-38
-367.10599 -1405.35 109 1.8403113e-38
-355.41199 -1406.99 104.768 1.8403113e-38
-200.73801 -942.98999 103.455 1.8403113e-38
-118.577 -694.11102 103.028 1.8403113e-38
-109.988 -684.10602 101.182 1.8403113e-38
520.71503 1324.9301 109 1.8403113e-38
534.867 1329.73 104.642 1.8403113e-38
545.54999 1323.98 100.297 1.8403113e-38
