# .PCD v0.7 - Point Cloud Data file format
VERSION 0.7
FIELDS x y z rgb
SIZE 4 4 4 4
TYPE F F F F
COUNT 1 1 1 1
WIDTH 352
HEIGHT 1
VIEWPOINT 0 0 0 1 0 0 0
POINTS 352
DATA ascii
1568.92 -161.186 -450.26599 1.8403113e-38
1536.58 -303.08401 -440.10901 1.8403113e-38
1545.35 -76.153999 -440.72699 1.8403113e-38
1550.3101 86.801697 -440.68301 1.8403113e-38
1549.54 107.251 -440.17099 1.8403113e-38
1555.3101 233.59 -440.83899 1.8403113e-38
1555.88 276.716 -440.55701 1.8403113e-38
1560.45 459.32101 -440.151 1.8403113e-38
1565.3101 559.81702 -440.78101 1.8403113e-38
1567.11 666.164 -440.23099 1.8403113e-38
1475.9301 -1370.3 -430.13699 1.8403113e-38
1479.03 -1280.62 -430.24899 1.8403113e-38
1484.55 -1200.51 -431.34698 1.8403113e-38
1487.76 -1163.0699 -432.09 1.8403113e-38
1484.4301 -1140.92 -430.62799 1.8403113e-38
1488.08 -1123.75 -431.76199 1.8403113e-38
1488.88 -1106.73 -431.86099 1.8403113e-38
1492.13 -1089.66 -432.85001 1.8403113e-38
1493.21 -1073.42 -433.05801 1.8403113e-38
1495.38 -1055.76 -433.64899 1.8403113e-38
1496.08 -1039.61 -433.71799 1.8403113e-38
1494.38 -1018.73 -432.86401 1.8403113e-38
1487.66 -996.05902 -430.164 1.8403113e-38
1493.89 -983.37299 -432.285 1.8403113e-38
1497.33 -970.73602 -433.39301 1.8403113e-38
1496.14 -951.58002 -432.74399 1.8403113e-38
1494.22 -934.51001 -431.853 1.8403113e-38
1502.03 -923.79797 -434.57101 1.8403113e-38
1495.37 -903.07397 -431.91599 1.8403113e-38
1499.23 -889.28998 -433.16 1.8403113e-38
1496.5601 -872.495 -432 1.8403113e-38
1505.3199 -863.03003 -435.07999 1.8403113e-38
1507.58 -850.51099 -435.76099 1.8403113e-38
1506.34 -833.27399 -435.112 1.8403113e-38
1507.55 -820.22101 -435.40601 1.8403113e-38
1507.47 -804.323 -435.19501 1.8403113e-38
1508.39 -791.33301 -435.384 1.8403113e-38
1509.52 -776.71002 -435.63101 1.8403113e-38
1507.05 -761.55798 -434.55801 1.8403113e-38
1511.78 -749.81598 -436.14801 1.8403113e-38
1508.21 -734.23602 -434.672 1.8403113e-38
1514.28 -723.60901 -436.759 1.8403113e-38
1508.8 -707.10498 -434.57999 1.8403113e-38
1513.03 -695.46899 -435.987 1.8403113e-38
1507.22 -679.159 -433.686 1.8403113e-38
1514.4301 -669.60999 -436.203 1.8403113e-38
1508.3 -653.46899 -433.789 1.8403113e-38
1510.4 -640.987 -434.41 1.8403113e-38
1509.6899 -628.427 -434.01001 1.8403113e-38
1514.01 -617.44299 -435.45999 1.8403113e-38
1513.0699 -604.927 -434.974 1.8403113e-38
1517.1899 -593.96002 -436.34799 1.8403113e-38
1514.33 -580.59601 -435.15701 1.8403113e-38
1515.7 -568.34198 -435.51801 1.8403113e-38
1521.03 -559.435 -437.35699 1.8403113e-38
1508.62 -540.40997 -432.62299 1.8403113e-38
1514.58 -531.94202 -434.69901 1.8403113e-38
1517.2 -520.698 -435.522 1.8403113e-38
1511 -506.46701 -433.10599 1.8403113e-38
1519.42 -498.077 -436.07401 1.8403113e-38
1519.03 -486.68399 -435.802 1.8403113e-38
1525.5699 -477.41901 -438.078 1.8403113e-38
1520.62 -464.172 -436.12799 1.8403113e-38
1519.12 -451.62601 -435.43799 1.8403113e-38
1520.9301 -441.39499 -435.98199 1.8403113e-38
1527.13 -432.08301 -438.13 1.8403113e-38
1527.89 -421.44199 -438.28799 1.8403113e-38
1526.84 -409.42401 -437.76901 1.8403113e-38
1517.63 -395.28299 -434.258 1.8403113e-38
1533.27 -389.40201 -439.88199 1.8403113e-38
1526.51 -376.311 -437.27499 1.8403113e-38
1530.41 -366.31299 -438.57901 1.8403113e-38
1521.61 -352.827 -435.22699 1.8403113e-38
1532.53 -345.12 -439.10999 1.8403113e-38
1529.83 -333.69 -437.99899 1.8403113e-38
1534.28 -323.95999 -439.508 1.8403113e-38
1533.21 -313.08801 -438.99399 1.8403113e-38
1529.85 -290.80899 -437.51999 1.8403113e-38
1533.96 -281.082 -438.90399 1.8403113e-38
1532.51 -270.284 -438.254 1.8403113e-38
1537.37 -260.745 -439.914 1.8403113e-38
1532.0601 -249.142 -437.85199 1.8403113e-38
1533.99 -239.00999 -438.44 1.8403113e-38
1534.9399 -228.839 -438.67001 1.8403113e-38
1536.71 -218.717 -439.19699 1.8403113e-38
1524.53 -206.15401 -434.62399 1.8403113e-38
1536.3 -197.916 -438.814 1.8403113e-38
1528.5601 -186.336 -435.86499 1.8403113e-38
1534.62 -177.054 -437.965 1.8403113e-38
1528.54 -165.896 -435.62701 1.8403113e-38
1533 -105.514 -436.565 1.8403113e-38
1540.3101 -96.135101 -439.11801 1.8403113e-38
1540.0699 -85.793404 -438.91501 1.8403113e-38
1532.75 -65.144096 -436.017 1.8403113e-38
1541.62 -55.6721 -439.13901 1.8403113e-38
1541.99 -45.314999 -439.15399 1.8403113e-38
1542.25 -35.4538 -439.13901 1.8403113e-38
1539.63 -25.022499 -438.06601 1.8403113e-38
1543.49 -15.2313 -439.35999 1.8403113e-38
1537.88 -4.82481 -437.20001 1.8403113e-38
1542.52 4.9984398 -438.776 1.8403113e-38
1544.25 15.5108 -439.28799 1.8403113e-38
1543.09 25.251801 -438.75601 1.8403113e-38
1543.72 35.797199 -438.86301 1.8403113e-38
1544.27 45.578098 -438.95499 1.8403113e-38
1545.66 56.243599 -439.33899 1.8403113e-38
1543.24 65.823303 -438.35001 1.8403113e-38
1546.33 76.698402 -439.35001 1.8403113e-38
1541.04 96.637901 -437.202 1.8403113e-38
1542.91 117.288 -437.64801 1.8403113e-38
1546.5601 127.462 -438.85901 1.8403113e-38
1536.05 136.88901 -434.927 1.8403113e-38
1543.25 147.59599 -437.42801 1.8403113e-38
1548.4 159.31599 -439.16901 1.8403113e-38
1549.84 169.33299 -439.578 1.8403113e-38
1545.51 179.64799 -437.88501 1.8403113e-38
1546.78 189.655 -438.23401 1.8403113e-38
1541.35 199.742 -436.146 1.8403113e-38
1549.85 211.229 -439.10699 1.8403113e-38
1546.09 221.703 -437.621 1.8403113e-38
1543.09 242.19099 -436.298 1.8403113e-38
1544.77 252.446 -436.79199 1.8403113e-38
1547.08 264.48199 -437.49399 1.8403113e-38
1545.1899 285.509 -436.569 1.8403113e-38
1546.51 295.84698 -436.931 1.8403113e-38
1552.92 309.45599 -439.112 1.8403113e-38
1548.61 318.26001 -437.44299 1.8403113e-38
1547.5601 329.83899 -436.931 1.8403113e-38
1554.8101 342.28799 -439.427 1.8403113e-38
1548.16 352.203 -436.89401 1.8403113e-38
1550.71 363.276 -437.69501 1.8403113e-38
1551.03 375.633 -437.673 1.8403113e-38
1552.48 386.474 -438.078 1.8403113e-38
1553.47 399.27701 -438.29099 1.8403113e-38
1554.71 410.18799 -438.62 1.8403113e-38
1556.34 423.47299 -439.06299 1.8403113e-38
1548.58 430.90201 -436.15399 1.8403113e-38
1555.25 446.44101 -438.405 1.8403113e-38
1551.12 468.35599 -436.65601 1.8403113e-38
1551.76 479.38699 -436.763 1.8403113e-38
1560.4399 496.59299 -439.72699 1.8403113e-38
1553.09 504.11899 -436.965 1.8403113e-38
1549.4399 515.83801 -435.50601 1.8403113e-38
1557.35 530.724 -438.215 1.8403113e-38
1550.91 541.245 -435.75201 1.8403113e-38
1556.09 569.08099 -437.323 1.8403113e-38
1560.04 582.59601 -438.60699 1.8403113e-38
1555.6801 594.51599 -436.883 1.8403113e-38
1563.53 610.48401 -439.55899 1.8403113e-38
1560.5601 623.42999 -438.332 1.8403113e-38
1563.13 636.74701 -439.117 1.8403113e-38
1562.37 651.23401 -438.67401 1.8403113e-38
1559.53 676.76801 -437.353 1.8403113e-38
1392.61 -3157.8501 -420.07999 1.8403113e-38
1400.37 -3001.54 -421.13101 1.8403113e-38
1411.8101 -2871.3501 -423.819 1.8403113e-38
1415.21 -2807.5801 -424.33401 1.8403113e-38
1413.66 -2725.8101 -422.84399 1.8403113e-38
1412.58 -2655.8799 -421.65799 1.8403113e-38
1416.58 -2595.99 -422.435 1.8403113e-38
1416.6 -2534.78 -421.74899 1.8403113e-38
1422.41 -2484.45 -423.29199 1.8403113e-38
1418.8 -2418.98 -421.237 1.8403113e-38
1426.77 -2378.1001 -423.67099 1.8403113e-38
1427.88 -2328.51 -423.513 1.8403113e-38
1434.59 -2287.8 -425.495 1.8403113e-38
1432.6899 -2234.8601 -424.203 1.8403113e-38
1438.55 -2195.27 -425.884 1.8403113e-38
1439.71 -2152.52 -425.82199 1.8403113e-38
1439.77 -2103.3301 -425.28799 1.8403113e-38
1440.47 -2062.6399 -425.08301 1.8403113e-38
1445.26 -2026.1801 -426.41 1.8403113e-38
1446.13 -1988.37 -426.29999 1.8403113e-38
1448.08 -1948.63 -426.556 1.8403113e-38
1447.38 -1910.1899 -425.86801 1.8403113e-38
1454.23 -1882.01 -428.04001 1.8403113e-38
1450.15 -1839.5 -426.073 1.8403113e-38
1453.25 -1806.34 -426.82599 1.8403113e-38
1450.42 -1768.45 -425.36801 1.8403113e-38
1458.96 -1746.6 -428.228 1.8403113e-38
1453.17 -1705.58 -425.65701 1.8403113e-38
1458.98 -1680.49 -427.48499 1.8403113e-38
1458.29 -1649.85 -426.88501 1.8403113e-38
1465.46 -1628.22 -429.25201 1.8403113e-38
1461.88 -1594.46 -427.565 1.8403113e-38
1468.41 -1572.95 -429.698 1.8403113e-38
1465.05 -1541.09 -428.11499 1.8403113e-38
1469.86 -1518.08 -429.604 1.8403113e-38
1466.24 -1487.3 -427.936 1.8403113e-38
1470.95 -1465.26 -429.40201 1.8403113e-38
1462.5699 -1429.17 -425.94299 1.8403113e-38
1470.63 -1412.87 -428.689 1.8403113e-38
1472.98 -1392.83 -429.31699 1.8403113e-38
1469.46 -1339.53 -427.43301 1.8403113e-38
1472.37 -1317.99 -428.24899 1.8403113e-38
1475.41 -1300.51 -429.15601 1.8403113e-38
1471.13 -1250.4301 -427.03101 1.8403113e-38
1475.4301 -1232.23 -428.38901 1.8403113e-38
1477.5 -1214.97 -428.94601 1.8403113e-38
1475.95 -1171.65 -427.89401 1.8403113e-38
1355.55 -3692.71 -412.65799 1.8403113e-38
1365.73 -3609.54 -415.41901 1.8403113e-38
1361.25 -3467.3501 -412.17999 1.8403113e-38
1376.15 -3413.29 -416.987 1.8403113e-38
1381.61 -3320.51 -417.922 1.8403113e-38
1385.41 -3235.02 -418.33499 1.8403113e-38
1392.62 -3068.8899 -419.07599 1.8403113e-38
1398.37 -2914.8701 -419.42401 1.8403113e-38
1311.3199 -3646.5601 -396.048 1.8403113e-38
1279.9399 -3643.1299 -384.59201 1.8403113e-38
1401.4 588.83502 -380.82401 1.8403113e-38
1256.08 -3828.8 -378.013 1.8403113e-38
1249.6 -3653.46 -373.66901 1.8403113e-38
1369 2096.6299 -351.95099 1.8403113e-38
1353.24 2102.9099 -346.14499 1.8403113e-38
1155.3 -3646.6499 -339.289 1.8403113e-38
1332.4399 2108.6201 -338.51501 1.8403113e-38
1123.03 -3646.0801 -327.54199 1.8403113e-38
1095.36 -3658.3999 -317.61401 1.8403113e-38
1058.85 -4037.3301 -308.625 1.8403113e-38
1058.98 -3632.6599 -304.08899 1.8403113e-38
1191.72 466.82199 -305.92599 1.8403113e-38
1188.59 483.672 -304.595 1.8403113e-38
1234.8101 2113.3301 -302.94299 1.8403113e-38
1253.03 2114.6599 -309.556 1.8403113e-38
1031.17 -3643.4099 -294.09299 1.8403113e-38
1168.96 459.72601 -297.72601 1.8403113e-38
1155.77 506.827 -292.39401 1.8403113e-38
1158.67 528.53497 -293.202 1.8403113e-38
1167.98 527.409 -296.60199 1.8403113e-38
1156.25 567.20001 -291.88501 1.8403113e-38
1213.0601 2115.05 -295.01099 1.8403113e-38
1140.59 458.81799 -287.414 1.8403113e-38
1129.6801 469.24899 -283.328 1.8403113e-38
1138.6899 468.12601 -286.617 1.8403113e-38
1139.3199 486.98599 -286.633 1.8403113e-38
1146.8301 535.11548 -288.82101 1.8403113e-38
1134.23 540.87799 -284.17001 1.8403113e-38
1175.24 2120.25 -281.19199 1.8403113e-38
1197.92 2121.74 -289.42899 1.8403113e-38
1119.9301 549.09302 -278.87601 1.8403113e-38
1155.0601 2111.48 -273.953 1.8403113e-38
1075.46 519.31598 -263.035 1.8403113e-38
1134.73 2116.1599 -266.504 1.8403113e-38
1119.59 2122.1499 -260.927 1.8403113e-38
1040.6801 500.534 -250.595 1.8403113e-38
1097.1801 2119.8101 -252.8 1.8403113e-38
912.58301 -3239.8101 -246.379 1.8403113e-38
1012.8 500.83899 -240.44901 1.8403113e-38
1021.45 501.65399 -243.58701 1.8403113e-38
1034.11 501.93399 -248.19099 1.8403113e-38
1079.1899 2115.8999 -246.302 1.8403113e-38
845.72601 -4266.3398 -233.689 1.8403113e-38
852.875 -3996.8799 -233.23599 1.8403113e-38
859.29901 -3741.8301 -232.683 1.8403113e-38
865.953 -3543.25 -232.854 1.8403113e-38
871.21899 -3341.1799 -232.48 1.8403113e-38
884.45203 -3240.9299 -236.157 1.8403113e-38
988.88397 496.444 -231.799 1.8403113e-38
984.82501 503.57999 -230.241 1.8403113e-38
1000.24 500.237 -235.886 1.8403113e-38
1041.86 2118.4099 -232.69099 1.8403113e-38
1059.4301 2121.75 -239.047 1.8403113e-38
827.46002 -4479.8999 -229.463 1.8403113e-38
962.43799 506.258 -222.067 1.8403113e-38
970.841 507.88 -225.106 1.8403113e-38
982.58002 508.31601 -229.371 1.8403113e-38
1022.08 2123.8999 -225.43201 1.8403113e-38
791.61102 -4481.52 -216.44 1.8403113e-38
937.98798 492.25201 -213.33099 1.8403113e-38
983.38 2119.52 -211.405 1.8403113e-38
1005.37 2123.0801 -219.36501 1.8403113e-38
753.414 -4476.5298 -202.48801 1.8403113e-38
919.07098 489.79599 -206.47701 1.8403113e-38
926.466 486.69601 -209.202 1.8403113e-38
908.85303 496.198 -202.687 1.8403113e-38
916.28003 493.22 -205.423 1.8403113e-38
912.87 598.96802 -202.98399 1.8403113e-38
920.56403 1037.1801 -200.817 1.8403113e-38
936.10901 1236.55 -204.213 1.8403113e-38
968.20898 2124.1299 -205.83299 1.8403113e-38
900.21198 492.95499 -199.58 1.8403113e-38
894.91248 501.3895 -197.5565 1.8403113e-38
882.47949 513.87549 -192.892 1.8403113e-38
890.72699 511.30899 -195.92101 1.8403113e-38
890.01703 576.32001 -194.927 1.8403113e-38
884.90198 590.672 -192.903 1.8403113e-38
930.73901 2122.51 -192.22 1.8403113e-38
947.92902 2126.98 -198.423 1.8403113e-38
717.80902 -4480.4302 -189.57899 1.8403113e-38
861.91803 512.604 -185.42599 1.8403113e-38
872.43402 513.987 -189.23599 1.8403113e-38
867.95203 527.07898 -187.457 1.8403113e-38
876.27002 570.98999 -189.98599 1.8403113e-38
859.54999 621.20001 -183.334 1.8403113e-38
867.00598 624.15698 -186.013 1.8403113e-38
861.80798 889.698 -181.11301 1.8403113e-38
867.28198 1007.79 -181.76601 1.8403113e-38
911.76202 2130.8501 -185.222 1.8403113e-38
679.65399 -4472.77 -175.612 1.8403113e-38
839.297 546.89502 -176.808 1.8403113e-38
836.02802 555.45801 -175.522 1.8403113e-38
846.93597 550.67603 -179.545 1.8403113e-38
836.63501 563.74597 -175.649 1.8403113e-38
836.10901 599.27502 -175.05499 1.8403113e-38
843.96301 620.23297 -177.675 1.8403113e-38
845.95697 639.11298 -178.186 1.8403113e-38
846.65698 649.35303 -178.325 1.8403113e-38
836.271 657.36603 -174.45599 1.8403113e-38
833.11102 668.758 -173.177 1.8403113e-38
848.65399 669.27399 -178.826 1.8403113e-38
835.25201 682.48199 -173.8 1.8403113e-38
835.49902 700.89203 -173.68201 1.8403113e-38
834.90503 710.37402 -173.358 1.8403113e-38
843.92346 752.5835 -176.16101 1.8403113e-38
847.54999 786.35699 -177.097 1.8403113e-38
843.47699 790.71997 -175.56599 1.8403113e-38
855.677 838.216 -179.466 1.8403113e-38
855.77002 852.52802 -179.338 1.8403113e-38
872.90503 2120.3201 -171.20599 1.8403113e-38
894.08002 2123.0901 -178.877 1.8403113e-38
644.07001 -4475.98 -162.703 1.8403113e-38
827.23102 936.96399 -167.99899 1.8403113e-38
606.15399 -4468.6401 -148.826 1.8403113e-38
569.93799 -4446.1602 -135.396 1.8403113e-38
533.47302 -4496.1299 -122.697 1.8403113e-38
739.42102 1499.05 -129.685 1.8403113e-38
402.599 -7784.1802 -112.344 1.8403113e-38
498.983 -4630.9199 -111.677 1.8403113e-38
696.13 1396.75 -115.095 1.8403113e-38
705.67902 1395.59 -118.582 1.8403113e-38
461.04501 -5111.2202 -103.318 1.8403113e-38
656.79102 1386.1899 -100.903 1.8403113e-38
670.55298 1385.15 -105.922 1.8403113e-38
681.28601 1392.11 -109.747 1.8403113e-38
632.04199 1375.8199 -92.017403 1.8403113e-38
646.526 1380.96 -97.228401 1.8403113e-38
338.505 -7786.6401 -89.055 1.8403113e-38
608.14301 1368.9301 -83.401299 1.8403113e-38
598.97803 1370.2 -80.052597 1.8403113e-38
623.06299 1379.28 -88.7117 1.8403113e-38
575.59302 1364.63 -71.608398 1.8403113e-38
585.487 1371.54 -75.129402 1.8403113e-38
275.17099 -7780.5801 -65.946198 1.8403113e-38
552.50403 1359.61 -63.265701 1.8403113e-38
562.14899 1365.75 -66.704803 1.8403113e-38
516.164 1352.85 -50.121899 1.8403113e-38
538.97498 1358.52 -58.3563 1.8403113e-38
530.00403 1361.15 -55.062901 1.8403113e-38
211.065 -7781.8799 -42.6395 1.8403113e-38
493.84 1355.75 -41.967999 1.8403113e-38
507.16599 1354.28 -46.8325 1.8403113e-38
