# .PCD v0.7 - Point Cloud Data file format
VERSION 0.7
FIELDS x y z rgb
SIZE 4 4 4 4
TYPE F F F F
COUNT 1 1 1 1
WIDTH 358
HEIGHT 1
VIEWPOINT 0 0 0 1 0 0 0
POINTS 358
DATA ascii
1392.42 378.28799 -301.34698 1.8403113e-38
1405.65 406.14999 -306.16199 1.8403113e-38
1396.0601 414.448 -302.67099 1.8403113e-38
1392.62 436.76001 -301.42001 1.8403113e-38
1394.28 449.31601 -302.02301 1.8403113e-38
1364.48 -1524.8199 -291.177 1.8403113e-38
1362.8101 -1252.8101 -290.57001 1.8403113e-38
1362.3 -1209.21 -290.384 1.8403113e-38
1364.86 -1150.1899 -291.315 1.8403113e-38
1365.97 -1092.5601 -291.72101 1.8403113e-38
1369.96 -986.67902 -293.17401 1.8403113e-38
1371.0601 -936.26202 -293.57199 1.8403113e-38
1375.0601 -906.44501 -295.02899 1.8403113e-38
1374.95 -890.08398 -294.98801 1.8403113e-38
1370.87 -870.82001 -293.505 1.8403113e-38
1370.88 -808.828 -293.50699 1.8403113e-38
1364.0699 -402.728 -291.02899 1.8403113e-38
1365.55 -391.871 -291.56699 1.8403113e-38
1364.25 -380.091 -291.095 1.8403113e-38
1365.8199 -358.155 -291.66699 1.8403113e-38
1361.59 -334.62399 -290.12799 1.8403113e-38
1361.58 -323.62601 -290.12201 1.8403113e-38
1364.1899 -313.42999 -291.073 1.8403113e-38
1361.26 -301.70801 -290.00699 1.8403113e-38
1365.13 -281.06799 -291.414 1.8403113e-38
1368.65 -260.37701 -292.69699 1.8403113e-38
1364.3101 -248.662 -291.117 1.8403113e-38
1369.99 -239.241 -293.185 1.8403113e-38
1363.61 -227.25301 -290.862 1.8403113e-38
1365.4301 -217.04201 -291.52499 1.8403113e-38
1364.39 -206.29401 -291.147 1.8403113e-38
1361.66 -174.41499 -290.151 1.8403113e-38
1361.84 -143.31799 -290.21799 1.8403113e-38
1362.52 -10.1926 -290.46399 1.8403113e-38
1363.28 313.17099 -290.74301 1.8403113e-38
1388.38 388.43399 -299.87701 1.8403113e-38
1385.53 422.26599 -298.83899 1.8403113e-38
1387.92 458.711 -299.70801 1.8403113e-38
1379.74 467.289 -296.73199 1.8403113e-38
1335.98 -1568.6801 -280.806 1.8403113e-38
1359.28 -1545.36 -289.28699 1.8403113e-38
1350.91 -1479.1 -286.237 1.8403113e-38
1335.51 -1381.98 -280.63501 1.8403113e-38
1341.97 -1365.86 -282.98599 1.8403113e-38
1342.76 -1342.88 -283.272 1.8403113e-38
1342.02 -1318.48 -283.00101 1.8403113e-38
1344.6899 -1298.6899 -283.97501 1.8403113e-38
1352.16 -1284.9 -286.69199 1.8403113e-38
1341.7 -1250.42 -282.88699 1.8403113e-38
1349.75 -1216.45 -285.81799 1.8403113e-38
1342.53 -1166.88 -283.19 1.8403113e-38
1349.4 -1154 -285.69101 1.8403113e-38
1341.8 -1106.59 -282.92401 1.8403113e-38
1358.33 -1104.12 -288.94101 1.8403113e-38
1359.65 -1067.4301 -289.41901 1.8403113e-38
1343.22 -1033.14 -283.439 1.8403113e-38
1354.46 -1025.74 -287.53201 1.8403113e-38
1354.3199 -1007.71 -287.48099 1.8403113e-38
1354.6899 -990.40802 -287.61301 1.8403113e-38
1359.16 -959.84198 -289.242 1.8403113e-38
1350.92 -935.79901 -286.24399 1.8403113e-38
1351.3 -903.17499 -286.379 1.8403113e-38
1355.9301 -843.47198 -288.065 1.8403113e-38
1347.5 -821.69397 -284.99799 1.8403113e-38
1354.2 -811.60999 -287.436 1.8403113e-38
1350.2 -778.95502 -285.98199 1.8403113e-38
1354.98 -767.74402 -287.72101 1.8403113e-38
1354.14 -752.69098 -287.41599 1.8403113e-38
1353.9301 -738.24902 -287.34 1.8403113e-38
1349.59 -721.21997 -285.75699 1.8403113e-38
1353.86 -710.07501 -287.31201 1.8403113e-38
1352.39 -695.30103 -286.77701 1.8403113e-38
1357.24 -684.66901 -288.543 1.8403113e-38
1361.1899 -673.5 -289.979 1.8403113e-38
1352.76 -654.92297 -286.91299 1.8403113e-38
1353.16 -641.888 -287.05801 1.8403113e-38
1360.03 -632.71198 -289.56 1.8403113e-38
1359.37 -619.23297 -289.319 1.8403113e-38
1356.0699 -604.42902 -288.11899 1.8403113e-38
1357.64 -592.45697 -288.68799 1.8403113e-38
1357.41 -579.61102 -288.60501 1.8403113e-38
1356.21 -566.375 -288.168 1.8403113e-38
1354.88 -553.20697 -287.68201 1.8403113e-38
1352.5601 -539.68298 -286.83899 1.8403113e-38
1356.9399 -529.56299 -288.43399 1.8403113e-38
1354.38 -516.14899 -287.5 1.8403113e-38
1361.15 -507.20901 -289.96701 1.8403113e-38
1354.02 -491.92999 -287.37201 1.8403113e-38
1358.02 -481.798 -288.82599 1.8403113e-38
1361.0601 -471.255 -289.931 1.8403113e-38
1358.76 -458.49301 -289.095 1.8403113e-38
1358.97 -446.88501 -289.17099 1.8403113e-38
1359.0699 -435.30801 -289.20801 1.8403113e-38
1359.95 -424.10501 -289.52802 1.8403113e-38
1360.73 -412.91901 -289.81201 1.8403113e-38
1361.05 -367.763 -289.931 1.8403113e-38
1358.8101 -344.79501 -289.11401 1.8403113e-38
1359.14 -290.306 -289.233 1.8403113e-38
1358.24 -268.591 -288.905 1.8403113e-38
1359.5601 -194.92101 -289.38599 1.8403113e-38
1357.4 -184.123 -288.60101 1.8403113e-38
1360.25 -163.80701 -289.64001 1.8403113e-38
1356.9 -152.97701 -288.418 1.8403113e-38
1354.5699 -132.108 -287.57199 1.8403113e-38
1361.22 -122.612 -289.992 1.8403113e-38
1353.77 -111.564 -287.27802 1.8403113e-38
1357.45 -101.711 -288.61899 1.8403113e-38
1359.1801 -91.640198 -289.24799 1.8403113e-38
1357.08 -81.266296 -288.483 1.8403113e-38
1356.76 -71.060501 -288.36899 1.8403113e-38
1352.61 -60.657398 -286.858 1.8403113e-38
1354.01 -50.598499 -287.366 1.8403113e-38
1356.26 -40.5532 -288.185 1.8403113e-38
1353.73 -30.3391 -287.26501 1.8403113e-38
1354.88 -20.244801 -287.68301 1.8403113e-38
1360.6801 0 -289.79501 1.8403113e-38
1358.76 10.1577 -289.09601 1.8403113e-38
1359.58 20.332001 -289.39301 1.8403113e-38
1352.79 30.312901 -286.923 1.8403113e-38
1356.26 40.5532 -288.185 1.8403113e-38
1354.01 50.598499 -287.366 1.8403113e-38
1358.24 60.971401 -288.90701 1.8403113e-38
1356.76 71.060501 -288.36899 1.8403113e-38
1357.08 81.266296 -288.483 1.8403113e-38
1349.8101 90.855598 -285.83801 1.8403113e-38
1361.1899 102.059 -289.98099 1.8403113e-38
1356.5699 111.852 -288.29999 1.8403113e-38
1353.74 121.776 -287.271 1.8403113e-38
1355.51 132.22099 -287.91101 1.8403113e-38
1359.04 142.953 -289.19901 1.8403113e-38
1355.97 152.84599 -288.07901 1.8403113e-38
1356.53 163.25 -288.285 1.8403113e-38
1355.15 173.38 -287.78299 1.8403113e-38
1357.4 184.123 -288.60101 1.8403113e-38
1359.5601 194.92101 -289.38599 1.8403113e-38
1350.51 203.689 -286.095 1.8403113e-38
1357.12 215.40199 -288.49799 1.8403113e-38
1348.85 224.2 -285.48999 1.8403113e-38
1355.26 236.052 -287.82199 1.8403113e-38
1354.2 246.375 -287.43701 1.8403113e-38
1353.0601 256.69699 -287.021 1.8403113e-38
1357.3199 268.367 -288.57199 1.8403113e-38
1357.8199 279.20099 -288.754 1.8403113e-38
1356.5549 295.00949 -288.29498 1.8403113e-38
1339.92 328.008 -282.237 1.8403113e-38
1358.86 322.82401 -289.134 1.8403113e-38
1353.4 343.09 -287.146 1.8403113e-38
1355.9399 354.939 -288.07001 1.8403113e-38
1339.27 461.89001 -282.00299 1.8403113e-38
1334.99 483.33401 -280.44601 1.8403113e-38
1349.95 502.02499 -285.88901 1.8403113e-38
1348.37 513.30103 -285.31299 1.8403113e-38
1349.25 525.83099 -285.633 1.8403113e-38
1357.67 542.21899 -288.698 1.8403113e-38
1335.3101 1972.8101 -280.561 1.8403113e-38
1347.3199 2035.76 -284.93201 1.8403113e-38
1306.54 -3625.3501 -270.08899 1.8403113e-38
1307.6899 -3519.22 -270.50699 1.8403113e-38
1309.21 -3420 -271.06201 1.8403113e-38
1308.29 -3318.1799 -270.728 1.8403113e-38
1310.6801 -3231.78 -271.59799 1.8403113e-38
1310.8 -3142.77 -271.63901 1.8403113e-38
1313.0699 -3064.3401 -272.465 1.8403113e-38
1315.78 -2990.79 -273.45099 1.8403113e-38
1316.35 -2914.6399 -273.66101 1.8403113e-38
1313.01 -2831.26 -272.44299 1.8403113e-38
1315.0601 -2765.79 -273.19101 1.8403113e-38
1314.6899 -2696.8 -273.05499 1.8403113e-38
1313.63 -2628.96 -272.67001 1.8403113e-38
1314.91 -2569.6001 -273.138 1.8403113e-38
1317.22 -2514.99 -273.97601 1.8403113e-38
1315.2 -2452.3501 -273.241 1.8403113e-38
1317 -2400.8101 -273.897 1.8403113e-38
1318.4399 -2350.3301 -274.422 1.8403113e-38
1317.08 -2295.52 -273.92599 1.8403113e-38
1319.09 -2249.8601 -274.65799 1.8403113e-38
1320.4399 -2204.3501 -275.14801 1.8403113e-38
1315.48 -2147.45 -273.34201 1.8403113e-38
1319.8101 -2111.1299 -274.92001 1.8403113e-38
1317.8 -2063.46 -274.189 1.8403113e-38
1319.1899 -2023.87 -274.69501 1.8403113e-38
1315.39 -1975.71 -273.311 1.8403113e-38
1318.87 -1942.49 -274.57599 1.8403113e-38
1320.45 -1906.78 -275.151 1.8403113e-38
1322.01 -1872.05 -275.71899 1.8403113e-38
1323.5699 -1838.29 -276.28799 1.8403113e-38
1325.16 -1805.49 -276.867 1.8403113e-38
1324.78 -1770.28 -276.728 1.8403113e-38
1325.4399 -1737.73 -276.96701 1.8403113e-38
1328.75 -1710.3 -278.17499 1.8403113e-38
1327.5 -1676.3101 -277.71799 1.8403113e-38
1323.11 -1638.36 -276.12 1.8403113e-38
1330.5699 -1619.46 -278.83701 1.8403113e-38
1326.9 -1584.27 -277.49899 1.8403113e-38
1320.3 -1517.6801 -275.09698 1.8403113e-38
1333.16 -1429.04 -279.77802 1.8403113e-38
1308.76 -1371.66 -270.89899 1.8403113e-38
1331.97 470.31799 -279.34601 1.8403113e-38
1294.65 -3699.1299 -265.763 1.8403113e-38
1279.39 514.89099 -260.20801 1.8403113e-38
1288.22 1964.4 -263.42001 1.8403113e-38
1300.76 2030.0699 -267.987 1.8403113e-38
1283.37 2081.8101 -261.65601 1.8403113e-38
1258.58 -3687.3999 -252.634 1.8403113e-38
1253.2 1977.8 -250.674 1.8403113e-38
1233.33 -3715.76 -243.442 1.8403113e-38
1227.83 499.74301 -241.442 1.8403113e-38
1232.5601 2020.8 -243.161 1.8403113e-38
1226.01 2051.1899 -240.77901 1.8403113e-38
1234.6899 2115.76 -243.94 1.8403113e-38
1196.88 505.29099 -230.17799 1.8403113e-38
1206.87 521.776 -233.814 1.8403113e-38
1207.54 533.32001 -234.056 1.8403113e-38
1204.78 543.00598 -233.052 1.8403113e-38
1189.2 -3670.52 -227.382 1.8403113e-38
1193.42 492.60199 -228.918 1.8403113e-38
1195.36 548.80402 -229.62399 1.8403113e-38
1180.09 2041.65 -224.065 1.8403113e-38
1171.25 2068.1899 -220.849 1.8403113e-38
1162.2 540.18799 -217.554 1.8403113e-38
1146.08 2057.4199 -211.686 1.8403113e-38
1138.73 2088.3601 -209.00999 1.8403113e-38
1119.3199 2090.8999 -201.94701 1.8403113e-38
1094.1851 514.59851 -192.79849 1.8403113e-38
1087.39 525.854 -190.325 1.8403113e-38
1105.8101 2107.96 -197.03101 1.8403113e-38
1059.54 -3269.4299 -180.19 1.8403113e-38
1066.22 522.49799 -182.62 1.8403113e-38
1086.34 2110.1399 -189.94299 1.8403113e-38
1061.9399 2152.99 -181.062 1.8403113e-38
1085.55 2161.27 -189.655 1.8403113e-38
1033.84 -3281.54 -170.834 1.8403113e-38
1035.34 522.255 -171.38 1.8403113e-38
1041.22 2151.8999 -173.522 1.8403113e-38
1014.31 -4522.2402 -163.72501 1.8403113e-38
1016.43 -4314.52 -164.49699 1.8403113e-38
1014.48 -4103.2002 -163.78999 1.8403113e-38
1012.88 -3911.8601 -163.20599 1.8403113e-38
1011.52 -3737.5 -162.71201 1.8403113e-38
1011.02 -3581.05 -162.53 1.8403113e-38
1009.08 -3429.78 -161.821 1.8403113e-38
1004.71 -3278.8301 -160.231 1.8403113e-38
1025.25 505.543 -167.707 1.8403113e-38
1023.55 2159.03 -167.088 1.8403113e-38
979.52002 -4543.8198 -151.064 1.8403113e-38
986.69202 508.33401 -153.674 1.8403113e-38
1001.08 508.69299 -158.911 1.8403113e-38
1000.03 2149.0801 -158.528 1.8403113e-38
949.30902 509.909 -140.06799 1.8403113e-38
958.88501 507.5 -143.55299 1.8403113e-38
970.81097 506.629 -147.894 1.8403113e-38
941.20398 -4543.3701 -137.118 1.8403113e-38
934.39099 508.11499 -134.638 1.8403113e-38
938.68201 525.67603 -136.2 1.8403113e-38
935.172 537.42102 -134.922 1.8403113e-38
937.36298 559.02002 -135.72 1.8403113e-38
944.90399 555.19 -138.465 1.8403113e-38
903.64301 -4547.4902 -123.447 1.8403113e-38
920.25098 554.65997 -129.492 1.8403113e-38
918.599 563.242 -128.89101 1.8403113e-38
920.77899 1184.74 -129.68401 1.8403113e-38
895.48901 1894.71 -120.479 1.8403113e-38
893.65302 551.47998 -119.811 1.8403113e-38
887.71002 818.33398 -117.648 1.8403113e-38
865.151 -4544.3398 -109.437 1.8403113e-38
846.63599 519.37201 -102.698 1.8403113e-38
840.69897 542.02301 -100.537 1.8403113e-38
841.81897 552.70203 -100.945 1.8403113e-38
842.80701 563.44202 -101.305 1.8403113e-38
849.56799 754.64899 -103.765 1.8403113e-38
864.59698 802.17297 -109.235 1.8403113e-38
853.06598 815.56702 -105.039 1.8403113e-38
848.26898 854.32202 -103.292 1.8403113e-38
865.87201 864.146 -109.7 1.8403113e-38
826.76001 -4540.8198 -95.463799 1.8403113e-38
825.91998 509.81699 -95.158203 1.8403113e-38
831.979 562.64801 -97.363602 1.8403113e-38
830.80499 770.67401 -96.936096 1.8403113e-38
837.87299 809.01801 -99.508698 1.8403113e-38
822.68799 832.026 -93.981598 1.8403113e-38
817.35699 922.66998 -92.041496 1.8403113e-38
822.763 968.599 -94.009003 1.8403113e-38
789.73199 -4547.8501 -81.986603 1.8403113e-38
811.08002 505.16501 -89.756897 1.8403113e-38
785.48798 534.88702 -80.442101 1.8403113e-38
808.258 548.61798 -88.729797 1.8403113e-38
788.59698 557.20001 -81.5737 1.8403113e-38
790.59399 569.17401 -82.300598 1.8403113e-38
793.71698 603.367 -83.437202 1.8403113e-38
788.77197 619.039 -81.637199 1.8403113e-38
797.63702 618.57599 -84.863899 1.8403113e-38
793.01501 635.11401 -83.181702 1.8403113e-38
793.95203 647.54102 -83.522697 1.8403113e-38
795.33502 660.79303 -84.026001 1.8403113e-38
799.67401 812.599 -85.605301 1.8403113e-38
798.35199 841.47302 -85.1241 1.8403113e-38
785.49402 852.92798 -80.444298 1.8403113e-38
803.35999 865.573 -86.946999 1.8403113e-38
811.26398 930.30902 -89.8237 1.8403113e-38
798.34399 944.59802 -85.121101 1.8403113e-38
783.09302 541.80298 -79.570297 1.8403113e-38
770.24103 556.76898 -74.892502 1.8403113e-38
775.35797 572.32001 -76.755203 1.8403113e-38
783.85602 658.03198 -79.848 1.8403113e-38
777.55499 793.633 -77.554604 1.8403113e-38
746.14203 -4493.9302 -66.121201 1.8403113e-38
711.237 -4518.1099 -53.416801 1.8403113e-38
711.65802 1420.59 -53.57 1.8403113e-38
726.04303 1424.9 -58.805901 1.8403113e-38
692.36298 -4723.1499 -46.547501 1.8403113e-38
684.61902 1416.27 -43.7286 1.8403113e-38
698.24902 1418.98 -48.689701 1.8403113e-38
669.96698 1409.59 -38.395802 1.8403113e-38
658.92603 1415.22 -34.3773 1.8403113e-38
631.13599 1404.97 -24.262699 1.8403113e-38
644.97498 1410.17 -29.2994 1.8403113e-38
592.81403 1399.17 -10.3144 1.8403113e-38
605.922 1402.85 -15.0853 1.8403113e-38
619.11499 1406.39 -19.887199 1.8403113e-38
568.12701 1397.25 -1.32898 1.8403113e-38
579.13397 1392.4301 -5.3353901 1.8403113e-38
543.40698 1393.86 7.6680799 1.8403113e-38
556.65698 1400.01 2.84551 1.8403113e-38
518.354 1387.04 16.786699 1.8403113e-38
530.09302 1386.59 12.514 1.8403113e-38
483.21799 1387.7 29.575199 1.8403113e-38
495.07901 1388.58 25.2582 1.8403113e-38
506.285 1385.41 21.1793 1.8403113e-38
458.76001 1379.6801 38.4772 1.8403113e-38
470.80099 1382.76 34.094601 1.8403113e-38
436.104 1383.0699 46.7234 1.8403113e-38
447.569 1382.41 42.550201 1.8403113e-38
399.86301 1365.48 59.913898 1.8403113e-38
411.69299 1370.14 55.608002 1.8403113e-38
423.496 1373.6801 51.312199 1.8403113e-38
377.121 1363.79 68.1912 1.8403113e-38
388.20999 1361.7 64.155098 1.8403113e-38
354.08301 1355.6899 76.576599 1.8403113e-38
365.85999 1363.78 72.290001 1.8403113e-38
320.45901 1351.71 88.814697 1.8403113e-38
331.88501 1358.14 84.6558 1.8403113e-38
343.01999 1357.46 80.603203 1.8403113e-38
308.20499 -584.19397 93.274803 1.8403113e-38
309.71701 -543.922 92.724197 1.8403113e-38
293.85599 -502.06201 98.497398 1.8403113e-38
297.05399 -487.80899 97.333298 1.8403113e-38
298.30701 1353.54 96.877296 1.8403113e-38
309.37201 1352.1801 92.849899 1.8403113e-38
269.28101 -521.97998 107.442 1.8403113e-38
265 -507 109 1.8403113e-38
272.93799 -483.92599 106.111 1.8403113e-38
288.70499 -481.33899 100.372 1.8403113e-38
284.388 -472.54999 101.943 1.8403113e-38
276.53699 -468.83899 104.801 1.8403113e-38
279.42999 -439.73199 103.748 1.8403113e-38
265.00101 1355 109 1.8403113e-38
276.112 1354.95 104.956 1.8403113e-38
287.19 1352.79 100.924 1.8403113e-38
