# .PCD v0.7 - Point Cloud Data file format
VERSION 0.7
FIELDS x y z rgb
SIZE 4 4 4 4
TYPE F F F F
COUNT 1 1 1 1
WIDTH 349
HEIGHT 1
VIEWPOINT 0 0 0 1 0 0 0
POINTS 349
DATA ascii
1315.58 221.25301 -290.349 1.8403113e-38
1323.86 234.94299 -291.67599 1.8403113e-38
1330.17 248.349 -292.34799 1.8403113e-38
1340.98 263.04599 -294.43701 1.8403113e-38
1341.47 275.30701 -293.22699 1.8403113e-38
1340.01 287.095 -291.39401 1.8403113e-38
1344.9 300.67599 -291.55801 1.8403113e-38
1353.34 315.42801 -292.82001 1.8403113e-38
1361.55 342.905 -292.57001 1.8403113e-38
1367.9 383.13501 -290.237 1.8403113e-38
800.93701 -1281.22 -281.32501 1.8403113e-38
805.82599 -1265.03 -281.194 1.8403113e-38
814.05402 -1254.58 -282.866 1.8403113e-38
819.60101 -1240 -283.14499 1.8403113e-38
818.71698 -1215.72 -280.10599 1.8403113e-38
830.67603 -1211.66 -283.789 1.8403113e-38
833.01398 -1193.09 -282.508 1.8403113e-38
846.46802 -1191.26 -286.95801 1.8403113e-38
845.16302 -1167.96 -283.884 1.8403113e-38
854.62299 -1160.46 -286.315 1.8403113e-38
861.77802 -1149.77 -287.58801 1.8403113e-38
854.62201 -1119.72 -281.728 1.8403113e-38
859.08801 -1106.01 -281.73199 1.8403113e-38
863.96997 -1093.08 -281.966 1.8403113e-38
865.76398 -1076.36 -280.70499 1.8403113e-38
869.12299 -1061.96 -280.246 1.8403113e-38
874.10797 -1049.8101 -280.604 1.8403113e-38
877.74103 -1036.1801 -280.328 1.8403113e-38
883.664 -1025.49 -281.17499 1.8403113e-38
887.617 -1012.6 -281.09299 1.8403113e-38
897.04999 -1006.21 -283.63901 1.8403113e-38
896.33801 -988.28497 -281.37399 1.8403113e-38
903.04498 -978.96301 -282.647 1.8403113e-38
905.15698 -964.67401 -281.76999 1.8403113e-38
910.99701 -954.60797 -282.65799 1.8403113e-38
916.08002 -943.82001 -283.203 1.8403113e-38
915.09601 -926.854 -280.953 1.8403113e-38
925.24402 -921.513 -283.86401 1.8403113e-38
929.31299 -910.00897 -283.978 1.8403113e-38
933.93799 -899.16998 -284.35901 1.8403113e-38
935.71198 -885.68298 -283.45499 1.8403113e-38
938.71002 -873.54199 -283.12601 1.8403113e-38
946.448 -865.93597 -284.948 1.8403113e-38
947.81403 -852.50403 -283.909 1.8403113e-38
949.02502 -839.117 -282.82199 1.8403113e-38
959.34802 -833.91199 -285.80899 1.8403113e-38
957.44897 -818.05798 -283.367 1.8403113e-38
963.31097 -809.04303 -284.38199 1.8403113e-38
962.53699 -794.53601 -282.48099 1.8403113e-38
968.19501 -785.49597 -283.422 1.8403113e-38
972.29602 -775.23102 -283.686 1.8403113e-38
974.065 -763.20099 -282.944 1.8403113e-38
975.70502 -751.20001 -282.16101 1.8403113e-38
984.758 -744.93402 -284.58899 1.8403113e-38
983.15198 -730.67499 -282.42801 1.8403113e-38
988.255 -721.51001 -283.16299 1.8403113e-38
992.51001 -711.76099 -283.539 1.8403113e-38
994.35498 -700.36603 -282.89499 1.8403113e-38
998.474 -678.17603 -281.823 1.8403113e-38
1005.49 -670.48401 -283.384 1.8403113e-38
1011.65 -662.20398 -284.58701 1.8403113e-38
1011.38 -649.82703 -283.10001 1.8403113e-38
1022.19 -644.46802 -286.23901 1.8403113e-38
1028.97 -636.51099 -287.68799 1.8403113e-38
1028.4 -624.14203 -286.099 1.8403113e-38
1030.95 -613.73297 -285.811 1.8403113e-38
1031.77 -602.39398 -284.819 1.8403113e-38
1034.12 -592.008 -284.46301 1.8403113e-38
1039.6801 -583.43201 -285.42099 1.8403113e-38
1037.7 -570.80902 -283.314 1.8403113e-38
1042.25 -561.75702 -283.87201 1.8403113e-38
1048.41 -553.52197 -285.077 1.8403113e-38
1050.3 -543.11798 -284.56 1.8403113e-38
1052.09 -532.72302 -284.01001 1.8403113e-38
1063.98 -527.19202 -287.50201 1.8403113e-38
1060.5 -514.34601 -284.853 1.8403113e-38
1064.59 -505.10501 -285.23001 1.8403113e-38
1065.17 -494.30801 -284.21399 1.8403113e-38
1066.51 -483.914 -283.508 1.8403113e-38
1066.89 -473.17099 -282.42899 1.8403113e-38
1074.12 -465.311 -284.047 1.8403113e-38
1073.4399 -454.22101 -282.565 1.8403113e-38
1085.8 -448.28299 -286.17499 1.8403113e-38
1084.08 -436.84201 -284.29001 1.8403113e-38
1087.53 -427.41199 -284.42499 1.8403113e-38
1092.6801 -418.58401 -285.21399 1.8403113e-38
1094.21 -408.46701 -284.60501 1.8403113e-38
1097.4399 -398.95401 -284.64999 1.8403113e-38
1099.6899 -389.12399 -284.323 1.8403113e-38
1103.65 -379.85001 -284.64999 1.8403113e-38
1110.23 -371.35699 -285.97299 1.8403113e-38
1113.15 -361.70999 -285.89801 1.8403113e-38
1119.61 -353.069 -287.16 1.8403113e-38
1122.38 -343.34201 -287.02399 1.8403113e-38
1124.16 -333.354 -286.51599 1.8403113e-38
1124.04 -322.896 -285.29599 1.8403113e-38
1130.21 -314.034 -286.436 1.8403113e-38
1132.66 -304.22501 -286.17899 1.8403113e-38
1144.2 -296.46201 -289.29999 1.8403113e-38
1135.48 -284.15302 -284.89499 1.8403113e-38
1145.97 -276.01199 -287.61099 1.8403113e-38
1140.72 -264.62201 -284.513 1.8403113e-38
1144.62 -255.07899 -284.78601 1.8403113e-38
1152.14 -246.14101 -286.384 1.8403113e-38
1162.38 -237.55299 -288.96301 1.8403113e-38
1157.7 -226.448 -286.091 1.8403113e-38
1160.36 -216.55499 -285.89899 1.8403113e-38
1162.9399 -206.633 -285.67499 1.8403113e-38
1170.11 -197.287 -287.10501 1.8403113e-38
1171.6 -187.153 -286.48001 1.8403113e-38
1167.39 -176.386 -283.811 1.8403113e-38
1177.14 -167.14 -286.146 1.8403113e-38
1175.5699 -156.692 -284.42599 1.8403113e-38
1179.54 -146.756 -284.68301 1.8403113e-38
1187.2 -137.03799 -286.23901 1.8403113e-38
1181.61 -126.344 -283.10001 1.8403113e-38
1188.16 -116.441 -284.255 1.8403113e-38
1194.64 -106.429 -285.371 1.8403113e-38
1198.22 -96.2052 -285.457 1.8403113e-38
1198.88 -85.8489 -284.51999 1.8403113e-38
1201.34 -75.524597 -284.20999 1.8403113e-38
1204.66 -65.172501 -284.19501 1.8403113e-38
1208.84 -54.767502 -284.47198 1.8403113e-38
1214.83 -44.275398 -285.36401 1.8403113e-38
1208.45 -33.9076 -281.987 1.8403113e-38
1220.89 -23.1392 -285.07999 1.8403113e-38
1219.05 -12.6705 -283.26801 1.8403113e-38
1220.92 -2.0655999 -282.71899 1.8403113e-38
1227.42 8.8309002 -283.74301 1.8403113e-38
1224.38 19.2353 -281.51999 1.8403113e-38
1232.59 30.4163 -283.104 1.8403113e-38
1233.16 41.121201 -282.09399 1.8403113e-38
1236.46 52.0965 -282.00299 1.8403113e-38
1243.45 63.514702 -283.138 1.8403113e-38
1239.02 73.813004 -280.44601 1.8403113e-38
1244.88 85.272301 -281.18399 1.8403113e-38
1245.9301 96.235001 -280.314 1.8403113e-38
1251.6 107.87 -280.965 1.8403113e-38
1262.8101 120.445 -283.42899 1.8403113e-38
1267.04 143.265 -282.327 1.8403113e-38
1265.73 154.16701 -280.647 1.8403113e-38
1271.83 166.437 -281.375 1.8403113e-38
1277.8101 178.826 -282.05099 1.8403113e-38
1295.83 193.80299 -286.60101 1.8403113e-38
1307.17 207.729 -288.95901 1.8403113e-38
1346.04 325.69101 -289.13699 1.8403113e-38
1353.13 352.85901 -288.534 1.8403113e-38
1355.5699 366.272 -287.87 1.8403113e-38
1365.53 395.19299 -288.061 1.8403113e-38
1365.77 408.20599 -286.681 1.8403113e-38
1367.71 421.91299 -285.80701 1.8403113e-38
1381.21 440.10501 -288.43201 1.8403113e-38
1385.54 455.08499 -288.246 1.8403113e-38
1391.51 470.88599 -288.535 1.8403113e-38
1391.09 484.27301 -286.88101 1.8403113e-38
1388.76 496.93799 -284.64899 1.8403113e-38
1394.29 513.02002 -284.755 1.8403113e-38
679.51202 -1579.53 -272.871 1.8403113e-38
688.29303 -1563.49 -274.10501 1.8403113e-38
698.36401 -1551.01 -276.186 1.8403113e-38
706.74701 -1534.89 -277.27399 1.8403113e-38
710.22601 -1508.0699 -275.45901 1.8403113e-38
721.67603 -1499.92 -278.505 1.8403113e-38
725.742 -1475.8 -277.19699 1.8403113e-38
730.70001 -1454.36 -276.50101 1.8403113e-38
737.45898 -1437.33 -276.923 1.8403113e-38
743.98999 -1420.28 -277.26501 1.8403113e-38
748.11603 -1398.91 -276.28799 1.8403113e-38
759.909 -1393.09 -279.71399 1.8403113e-38
764.466 -1373.4399 -279.07999 1.8403113e-38
771.495 -1358.9399 -279.88101 1.8403113e-38
776.48297 -1341.03 -279.59201 1.8403113e-38
779.81598 -1320.61 -278.44699 1.8403113e-38
785.73901 -1305.27 -278.771 1.8403113e-38
792.922 -1292.4301 -279.81201 1.8403113e-38
990.63202 -685.25598 -279.905 1.8403113e-38
1253.23 129.993 -279.039 1.8403113e-38
1318.4 493.47601 -260.686 1.8403113e-38
1805.3199 2100.6201 -248.33501 1.8403113e-38
1763.92 2085.4099 -235.715 1.8403113e-38
1199.75 453.16101 -224.155 1.8403113e-38
1740.53 2092.3401 -226.839 1.8403113e-38
1183.5699 457.67001 -218.045 1.8403113e-38
1169.13 462.74399 -212.478 1.8403113e-38
1168.62 474.315 -211.00101 1.8403113e-38
1710.51 2090.3301 -216.677 1.8403113e-38
1168.88 486.33701 -209.735 1.8403113e-38
1148.37 499.83899 -201.116 1.8403113e-38
1160.37 494.035 -205.923 1.8403113e-38
1683.02 2091.1101 -207.07401 1.8403113e-38
1127.77 500.944 -193.86099 1.8403113e-38
1656.8101 2093.1399 -197.771 1.8403113e-38
1623.08 2084.3999 -187.082 1.8403113e-38
1053.41 472.77802 -171.29401 1.8403113e-38
1579.1801 2098.1499 -170.339 1.8403113e-38
1605.1801 2097.0601 -179.459 1.8403113e-38
1042.5 477.866 -166.94501 1.8403113e-38
1001.24 476.45999 -152.821 1.8403113e-38
1019.71 476.14499 -159.252 1.8403113e-38
981.97498 475.987 -146.207 1.8403113e-38
974.479 482.16299 -142.918 1.8403113e-38
1277.78 1419.21 -142.431 1.8403113e-38
1486.76 2002.22 -149.147 1.8403113e-38
956.13397 481.67599 -136.623 1.8403113e-38
1424.4 1946.87 -133.793 1.8403113e-38
1436.23 2000.87 -131.808 1.8403113e-38
1478.25 2102.73 -134.886 1.8403113e-38
912.23102 475.142 -122.162 1.8403113e-38
932.888 477.82101 -129.00999 1.8403113e-38
1197.05 1297.33 -128.207 1.8403113e-38
1449.45 2097.26 -125.535 1.8403113e-38
896.49597 485.34299 -115.568 1.8403113e-38
907.24597 482.14001 -119.649 1.8403113e-38
892.242 492.72101 -113.265 1.8403113e-38
879.854 494.56699 -108.769 1.8403113e-38
874.12048 505.93851 -105.5045 1.8403113e-38
867.45697 516.67499 -101.99 1.8403113e-38
1367.84 2007.09 -107.435 1.8403113e-38
840.04303 507.026 -93.587097 1.8403113e-38
1031.9 1079.41 -95.570396 1.8403113e-38
1332.77 1988.58 -97.380699 1.8403113e-38
1327.51 2018.1801 -92.229202 1.8403113e-38
808.12598 493.41599 -84.071198 1.8403113e-38
814.70099 508.26199 -84.676201 1.8403113e-38
814.10999 517.87299 -83.3899 1.8403113e-38
806.479 522.06097 -80.277397 1.8403113e-38
856.09302 676.763 -80.037804 1.8403113e-38
1337.13 2073.52 -89.330399 1.8403113e-38
1328.35 2099.02 -83.4217 1.8403113e-38
801.89398 528.599 -77.954498 1.8403113e-38
791.04602 540.28998 -72.883797 1.8403113e-38
804.86401 541.284 -77.554604 1.8403113e-38
821.99597 633.16699 -73.1427 1.8403113e-38
859.52698 692.51898 -79.453201 1.8403113e-38
859.21503 704.961 -77.944901 1.8403113e-38
859.46002 718.13501 -76.5467 1.8403113e-38
858.84698 730.66699 -74.924103 1.8403113e-38
855.315 740.42401 -72.603302 1.8403113e-38
857.17297 755.84497 -71.511002 1.8403113e-38
1302.89 2095.9399 -74.956703 1.8403113e-38
778.04303 539.72101 -68.447197 1.8403113e-38
770.32001 543.43402 -65.355797 1.8403113e-38
768.51099 552.216 -63.741299 1.8403113e-38
768.08002 562.31 -62.456001 1.8403113e-38
784.33698 587.59198 -65.237503 1.8403113e-38
855.42999 767.77301 -69.565102 1.8403113e-38
856.92401 783.32898 -68.331299 1.8403113e-38
856.88098 797.51099 -66.7201 1.8403113e-38
855.33398 810.27899 -64.747398 1.8403113e-38
860.21198 830.466 -64.163803 1.8403113e-38
859.60101 844.836 -62.3349 1.8403113e-38
873.66803 876.51501 -63.638199 1.8403113e-38
1277.5699 2092.5601 -66.5709 1.8403113e-38
327.505 -712.60101 -53.455002 1.8403113e-38
1233.48 2096.3101 -50.888599 1.8403113e-38
1254.78 2093.24 -58.606098 1.8403113e-38
309.52399 -682.30499 -43.821499 1.8403113e-38
1207.54 2090.3301 -42.5826 1.8403113e-38
299.504 -671.849 -39.176399 1.8403113e-38
1187.29 2094.6699 -35.083302 1.8403113e-38
280.448 -635.52802 -28.492599 1.8403113e-38
1164.77 2094.3601 -27.3262 1.8403113e-38
-244.63499 -2147.3799 -16.909599 1.8403113e-38
1118.22 2089.3899 -11.7734 1.8403113e-38
1143.67 2096.47 -19.783899 1.8403113e-38
-249.14 -2065.21 -6.1010499 1.8403113e-38
196.4225 -656.80945 -1.8039351 1.8403113e-38
242.38 -542.64697 -4.8621001 1.8403113e-38
232.927 -528.62201 -0.0112297 1.8403113e-38
1097.27 2091.02 -4.3359799 1.8403113e-38
-260.91501 -2034.26 1.45719 1.8403113e-38
197.73801 -626.427 1.16035 1.8403113e-38
227.097 -524.66302 2.45227 1.8403113e-38
214.80434 -513.71332 7.9394097 1.8403113e-38
1075.92 2091.52 3.10741 1.8403113e-38
188.04201 -561.828 11.7871 1.8403113e-38
188.192 -543.37598 13.8122 1.8403113e-38
188.515 -526.88 15.5571 1.8403113e-38
188.573 -510.42801 17.3887 1.8403113e-38
195.5675 -513.29553 14.6449 1.8403113e-38
205.00751 -516.78198 10.9849 1.8403113e-38
1030.55 2085.46 18.129 1.8403113e-38
1055.0601 2092.7 10.4639 1.8403113e-38
43.829399 -868.35999 27.2024 1.8403113e-38
85.899948 -773.716 23.29295 1.8403113e-38
76.839798 -760.289 27.940201 1.8403113e-38
93.466202 -729.47998 25.653 1.8403113e-38
167.80901 -549.99103 20.1227 1.8403113e-38
150.632 -524.72803 28.911501 1.8403113e-38
155.2935 -516.58551 28.214649 1.8403113e-38
-6.7353902 -987.409 31.305 1.8403113e-38
11.948 -940.41498 30.127399 1.8403113e-38
21.000299 -911.823 30.212299 1.8403113e-38
7.03688 -908.323 35.4394 1.8403113e-38
31.565399 -844.37598 34.146702 1.8403113e-38
38.792702 -828.55603 33.4258 1.8403113e-38
105.817 -573.146 38.973701 1.8403113e-38
116.338 -544.92297 38.508701 1.8403113e-38
119.251 -532.52399 38.896099 1.8403113e-38
143.50101 -531.28101 30.642401 1.8403113e-38
124.722 -527.177 37.604301 1.8403113e-38
134.05901 -521.71539 34.987064 1.8403113e-38
146.703 -525.58197 30.1754 1.8403113e-38
3.4126599 -794.39398 49.516899 1.8403113e-38
56.681702 -636.64398 48.834202 1.8403113e-38
61.831001 -618.67999 49.0737 1.8403113e-38
71.186897 -619.41498 45.752602 1.8403113e-38
93.541702 -591.24902 41.1852 1.8403113e-38
96.752197 -565.104 43.016602 1.8403113e-38
100.77 -560.73499 42.1175 1.8403113e-38
108.311 -547.95099 40.946201 1.8403113e-38
111.93 -541.52002 40.417702 1.8403113e-38
741.203 1472.86 49.3316 1.8403113e-38
676.37402 1356.26 58.6479 1.8403113e-38
-85.296097 -904.52698 67.825897 1.8403113e-38
-13.9343 -693.81598 66.841599 1.8403113e-38
-7.0299702 -681.50897 65.836998 1.8403113e-38
-16.8083 -676.40997 69.795502 1.8403113e-38
-0.79902202 -673.09497 64.627296 1.8403113e-38
10.2338 -666.00702 61.606201 1.8403113e-38
5.94101 -658.67297 63.917702 1.8403113e-38
67.732002 -493.32199 61.140598 1.8403113e-38
644.52802 1344.96 68.399002 1.8403113e-38
662.12299 1354.85 63.421799 1.8403113e-38
-29.113199 -627.34003 79.577599 1.8403113e-38
617.19897 1343.1899 77.659103 1.8403113e-38
632.69299 1348.79 72.9263 1.8403113e-38
-44.047798 -654.20398 81.723297 1.8403113e-38
-50.2589 -612.33002 88.586197 1.8403113e-38
-39.477402 -606.29999 85.533096 1.8403113e-38
-41.9552 -595.65302 87.588997 1.8403113e-38
588.677 1337.1 86.845497 1.8403113e-38
603.25299 1341.15 82.257202 1.8403113e-38
-117.233 -729.83899 98.541901 1.8403113e-38
-81.022797 -618.44397 98.546303 1.8403113e-38
-52.842201 -592.35999 91.727997 1.8403113e-38
-67.492798 -585.80402 97.536903 1.8403113e-38
-57.315399 -582.12097 94.428703 1.8403113e-38
-59.6777 -573.33002 96.235802 1.8403113e-38
560.48999 1330.4 95.847702 1.8403113e-38
574.54102 1333.8199 91.369797 1.8403113e-38
-368.34299 -1409.15 109 1.8403113e-38
-353.302 -1400.3101 104.788 1.8403113e-38
-193.985 -921.00403 103.592 1.8403113e-38
-119.72 -697.94397 102.992 1.8403113e-38
-107.765 -676.422 101.277 1.8403113e-38
521.95203 1328.73 109 1.8403113e-38
535.50098 1331.63 104.636 1.8403113e-38
549.448 1335.33 100.225 1.8403113e-38
