# .PCD v0.7 - Point Cloud Data file format
VERSION 0.7
FIELDS x y z rgb
SIZE 4 4 4 4
TYPE F F F F
COUNT 1 1 1 1
WIDTH 344
HEIGHT 1
VIEWPOINT 0 0 0 1 0 0 0
POINTS 344
DATA ascii
1695.88 -935.29797 -430.13599 1.8403113e-38
1698.42 -905.63397 -430.34601 1.8403113e-38
1699.5699 -875.54797 -430.039 1.8403113e-38
1708.23 -852.32501 -432.629 1.8403113e-38
1708.15 -752.32001 -430.19699 1.8403113e-38
1716.6801 -664.19897 -431.17499 1.8403113e-38
1720.55 -641.05402 -432.026 1.8403113e-38
1720.28 -567.16998 -430.14999 1.8403113e-38
1721.47 -544.06 -430.02802 1.8403113e-38
1727.35 -523.52301 -431.67001 1.8403113e-38
1726.37 -511.68201 -431.03201 1.8403113e-38
1726.84 -500.19101 -430.92499 1.8403113e-38
1731.7 -491.086 -432.47 1.8403113e-38
1732.83 -480.039 -432.616 1.8403113e-38
1731.4301 -468.245 -431.82501 1.8403113e-38
1732.36 -457.29999 -431.89801 1.8403113e-38
1731.62 -445.91299 -431.35501 1.8403113e-38
1729.7 -434.03799 -430.37201 1.8403113e-38
1735.45 -414.27701 -431.98801 1.8403113e-38
1733.75 -391.952 -430.832 1.8403113e-38
1733.29 -380.95901 -430.40201 1.8403113e-38
1739.7 -372.45499 -432.52499 1.8403113e-38
1733.67 -359.716 -430.02899 1.8403113e-38
1746.23 -353.13 -434.43201 1.8403113e-38
1745.2 -331.595 -433.54199 1.8403113e-38
1741.47 -319.79199 -431.90399 1.8403113e-38
1745.015 -305.15698 -432.84 1.8403113e-38
1747.49 -290.31699 -433.38 1.8403113e-38
1747.9399 -279.716 -433.29001 1.8403113e-38
1751.77 -270.595 -434.461 1.8403113e-38
1750.21 -259.53799 -433.63 1.8403113e-38
1751.12 -249.841 -433.728 1.8403113e-38
1743.84 -237.714 -430.793 1.8403113e-38
1748.27 -228.841 -432.18799 1.8403113e-38
1753.4 -209.437 -433.58401 1.8403113e-38
1752.22 -198.57001 -432.89499 1.8403113e-38
1746.13 -188.088 -430.42999 1.8403113e-38
1746.62 -177.558 -430.35699 1.8403113e-38
1750.6 -168.66701 -431.58701 1.8403113e-38
1749.0601 -157.83299 -430.767 1.8403113e-38
1751.02 -148.71201 -431.259 1.8403113e-38
1756.78 -138.645 -433.10999 1.8403113e-38
1753.91 -129.054 -431.83801 1.8403113e-38
1760.23 -109.614 -433.66699 1.8403113e-38
1758.17 -98.690598 -432.655 1.8403113e-38
1763.42 -89.8153 -434.35101 1.8403113e-38
1753.6801 -78.510902 -430.539 1.8403113e-38
1761.6 -69.748802 -433.20599 1.8403113e-38
1762.9399 -58.922501 -433.43301 1.8403113e-38
1766.02 -49.903702 -434.33401 1.8403113e-38
1757.79 -38.875301 -431.08099 1.8403113e-38
1764.48 -29.9065 -433.29401 1.8403113e-38
1762.65 -18.9419 -432.366 1.8403113e-38
1763.55 -9.9623203 -432.47601 1.8403113e-38
1766.24 1.13729 -433.18799 1.8403113e-38
1766.05 10.0768 -432.90302 1.8403113e-38
1770.4399 21.3902 -434.22699 1.8403113e-38
1773.85 30.5166 -435.246 1.8403113e-38
1768.67 41.438 -433.103 1.8403113e-38
1772.87 50.6334 -434.40601 1.8403113e-38
1767.51 61.507702 -432.20001 1.8403113e-38
1771.5601 70.725998 -433.44699 1.8403113e-38
1768.84 81.836403 -432.19101 1.8403113e-38
1777.4 91.616302 -435.06699 1.8403113e-38
1770.75 102.349 -432.39499 1.8403113e-38
1773.55 111.539 -433.189 1.8403113e-38
1770.46 122.699 -431.79901 1.8403113e-38
1773.1 131.903 -432.53601 1.8403113e-38
1776.35 144.105 -433.422 1.8403113e-38
1770.45 151.976 -431.09299 1.8403113e-38
1775.36 164.616 -432.57101 1.8403113e-38
1777.6801 173.892 -433.19 1.8403113e-38
1774.96 185.32001 -431.927 1.8403113e-38
1784.51 196.125 -435.13699 1.8403113e-38
1781.59 207.65199 -433.798 1.8403113e-38
1776.2 215.356 -431.65799 1.8403113e-38
1781.38 228.77699 -433.215 1.8403113e-38
1780.45 237.47701 -432.668 1.8403113e-38
1776.23 248.79401 -430.86401 1.8403113e-38
1780.64 258.85999 -432.224 1.8403113e-38
1780.79 271.44299 -431.97501 1.8403113e-38
1787.74 282.38599 -434.23801 1.8403113e-38
1785.84 294.60501 -433.254 1.8403113e-38
1784.4399 303.23599 -432.53699 1.8403113e-38
1784.14 316.05301 -432.12201 1.8403113e-38
1787.09 326.09 -432.952 1.8403113e-38
1788.36 339.63199 -433.08801 1.8403113e-38
1789.33 349.13699 -433.20999 1.8403113e-38
1784.99 360.92999 -431.353 1.8403113e-38
1788.47 371.39499 -432.362 1.8403113e-38
1783.03 382.87601 -430.11401 1.8403113e-38
1792.52 395.77399 -433.25 1.8403113e-38
1793.05 409.758 -433.10699 1.8403113e-38
1789.95 417.91599 -431.784 1.8403113e-38
1792.87 433.10001 -432.48001 1.8403113e-38
1789.61 441.20599 -431.10001 1.8403113e-38
1792.26 456.56201 -431.69299 1.8403113e-38
1798.39 468.89801 -433.62399 1.8403113e-38
1792.9399 480.92999 -431.354 1.8403113e-38
1802.28 495.021 -434.41 1.8403113e-38
1796.25 516.79303 -431.694 1.8403113e-38
1802.6 510.021 -434.164 1.8403113e-38
1799.71 533.59198 -432.54901 1.8403113e-38
1803.41 545.49103 -433.60501 1.8403113e-38
1801.46 559.888 -432.552 1.8403113e-38
1804.0699 571.44 -433.22299 1.8403113e-38
1801.84 585.95001 -432.065 1.8403113e-38
1812.5601 602.26398 -435.565 1.8403113e-38
1804.2 613.625 -432.254 1.8403113e-38
1810.46 627.76898 -434.18799 1.8403113e-38
1813.38 645.99402 -434.811 1.8403113e-38
1817.6801 659.367 -436.05099 1.8403113e-38
1817.76 676.35101 -435.67401 1.8403113e-38
1820.96 689.36401 -436.522 1.8403113e-38
1819.88 706.01898 -435.73001 1.8403113e-38
1817.98 715.979 -434.80099 1.8403113e-38
1814.1899 731.13898 -433.061 1.8403113e-38
1818.4399 745.41101 -434.26001 1.8403113e-38
1815.9 761.77698 -432.94601 1.8403113e-38
1827.6801 781.77399 -436.742 1.8403113e-38
1816.95 792.69897 -432.582 1.8403113e-38
1828.3199 812.97498 -436.224 1.8403113e-38
1818.09 824.46802 -432.233 1.8403113e-38
1828.27 844.43402 -435.452 1.8403113e-38
1829.85 931.966 -433.922 1.8403113e-38
1832.0699 947.11499 -434.36301 1.8403113e-38
1827.95 964.98602 -432.44 1.8403113e-38
1835.63 985.37201 -434.73901 1.8403113e-38
1824.6 997.56598 -430.43799 1.8403113e-38
1833.28 1019.46 -433.06601 1.8403113e-38
1833.28 1042.23 -432.51901 1.8403113e-38
1834.38 1057.76 -432.54501 1.8403113e-38
1831.0699 1078.0601 -430.853 1.8403113e-38
1847.05 1108.66 -435.922 1.8403113e-38
1852.76 1138.88 -437.271 1.8403113e-38
1844.0601 1145.78 -433.94601 1.8403113e-38
1600.54 -1967.1899 -420.30701 1.8403113e-38
1605.02 -1894.0601 -420.177 1.8403113e-38
1608.16 -1863.39 -420.57999 1.8403113e-38
1610.98 -1828.39 -420.76199 1.8403113e-38
1611.8199 -1795.26 -420.272 1.8403113e-38
1613.6801 -1760.5 -420.11099 1.8403113e-38
1618.7 -1737.0601 -421.37299 1.8403113e-38
1626.35 -1714.53 -423.61099 1.8403113e-38
1621.0601 -1674.0601 -420.71701 1.8403113e-38
1629.96 -1655.0699 -423.492 1.8403113e-38
1628.62 -1623.34 -422.24301 1.8403113e-38
1635.4399 -1601.89 -424.20499 1.8403113e-38
1633.79 -1571.1899 -422.866 1.8403113e-38
1639.48 -1549.02 -424.39899 1.8403113e-38
1635.96 -1516.88 -422.349 1.8403113e-38
1641.01 -1494.88 -423.65302 1.8403113e-38
1645.8101 -1476.84 -424.965 1.8403113e-38
1649.78 -1454.11 -425.86099 1.8403113e-38
1646.36 -1424.84 -423.91299 1.8403113e-38
1649.6899 -1402.3 -424.58401 1.8403113e-38
1647.76 -1376.46 -423.26001 1.8403113e-38
1651.0699 -1354.89 -423.94299 1.8403113e-38
1650.1899 -1331.61 -423.064 1.8403113e-38
1654.1 -1311.76 -424.01001 1.8403113e-38
1649.67 -1284.78 -421.75 1.8403113e-38
1653.64 -1265.88 -422.73801 1.8403113e-38
1658.79 -1252.08 -424.27701 1.8403113e-38
1655.63 -1224.96 -422.47699 1.8403113e-38
1656.03 -1205.96 -422.16901 1.8403113e-38
1662.17 -1191.05 -424.04001 1.8403113e-38
1664.02 -1174.34 -424.31 1.8403113e-38
1664.73 -1153.61 -424.07101 1.8403113e-38
1661.65 -1131.91 -422.431 1.8403113e-38
1667.66 -1117.9 -424.276 1.8403113e-38
1663.42 -1095.65 -422.202 1.8403113e-38
1670.38 -1083.14 -424.42801 1.8403113e-38
1673.61 -1069.49 -425.27301 1.8403113e-38
1677.62 -1054.1801 -426.362 1.8403113e-38
1683.24 -1043.28 -428.142 1.8403113e-38
1680.8101 -1021.88 -426.74301 1.8403113e-38
1679.26 -1004.21 -425.755 1.8403113e-38
1690.86 -997.15198 -429.79999 1.8403113e-38
1688.97 -979.526 -428.69 1.8403113e-38
1687.04 -959.88599 -427.51599 1.8403113e-38
1691.09 -948.29401 -428.707 1.8403113e-38
1695.37 -919.82898 -429.577 1.8403113e-38
1698.29 -890.875 -429.944 1.8403113e-38
1699.1 -860.87701 -429.51599 1.8403113e-38
1700.73 -832.31299 -429.42401 1.8403113e-38
1699.08 -815.51202 -428.41901 1.8403113e-38
1697.1801 -800.46899 -427.36801 1.8403113e-38
1703.5601 -790.216 -429.44101 1.8403113e-38
1701.37 -775.24597 -428.28299 1.8403113e-38
1703.66 -762.20398 -428.802 1.8403113e-38
1707.85 -737.70203 -429.73499 1.8403113e-38
1702.6801 -721.315 -427.46201 1.8403113e-38
1706.79 -710.09399 -428.68799 1.8403113e-38
1706.86 -697.54199 -428.41 1.8403113e-38
1711.5601 -686.87701 -429.85999 1.8403113e-38
1708.16 -672.30902 -428.27499 1.8403113e-38
1711.38 -648.71899 -428.88 1.8403113e-38
1708.4 -621.87201 -427.14999 1.8403113e-38
1715.73 -613.26398 -429.60501 1.8403113e-38
1711.48 -599.03003 -427.72198 1.8403113e-38
1717.8101 -589.94299 -429.79999 1.8403113e-38
1714.13 -576.26099 -428.13699 1.8403113e-38
1719.73 -555.29901 -429.66699 1.8403113e-38
1721.55 -532.64301 -429.78299 1.8403113e-38
1728.74 -422.71301 -429.75299 1.8403113e-38
1728.98 -401.02399 -429.31699 1.8403113e-38
1733.67 -338.573 -429.522 1.8403113e-38
1740.79 -216.866 -429.181 1.8403113e-38
1749.21 -117.955 -429.86499 1.8403113e-38
1788.0601 876.71399 -420.073 1.8403113e-38
1486.49 -3307.1499 -411.08499 1.8403113e-38
1490.8199 -3211.8701 -410.367 1.8403113e-38
1499.16 -3133.73 -411.517 1.8403113e-38
1504.9301 -3055.0701 -411.72501 1.8403113e-38
1509.3199 -2971.46 -411.30899 1.8403113e-38
1515.26 -2902.6299 -411.814 1.8403113e-38
1528.8101 -2858.3501 -415.67099 1.8403113e-38
1531.9 -2786.8301 -415.073 1.8403113e-38
1532.95 -2707.6499 -413.55099 1.8403113e-38
1537.65 -2648.74 -413.84399 1.8403113e-38
1544 -2592.52 -414.798 1.8403113e-38
1546.86 -2533.8201 -414.42801 1.8403113e-38
1553.84 -2484.3899 -415.77399 1.8403113e-38
1555.95 -2428.73 -415.202 1.8403113e-38
1563.51 -2385.0901 -416.89801 1.8403113e-38
1563.97 -2329.6699 -415.73499 1.8403113e-38
1571.27 -2288.98 -417.40701 1.8403113e-38
1578.5699 -2254.9299 -419.242 1.8403113e-38
1578.77 -2199.76 -417.98801 1.8403113e-38
1585.64 -2167.6499 -419.71301 1.8403113e-38
1588.3 -2121.8701 -419.57599 1.8403113e-38
1588.55 -2077.22 -418.59399 1.8403113e-38
1592.3199 -2037.13 -419 1.8403113e-38
1596.1801 -2003.5 -419.59698 1.8403113e-38
1600.83 -1928.37 -419.48001 1.8403113e-38
1456.12 -3564.45 -406.237 1.8403113e-38
1467.9399 -3479.1101 -408.478 1.8403113e-38
1474.99 -3382.6201 -408.72 1.8403113e-38
1415.67 -3667.53 -394.02399 1.8403113e-38
1418.4 -3528.6101 -391.67599 1.8403113e-38
1699.04 773.99103 -390.211 1.8403113e-38
1709.42 800.61902 -393.341 1.8403113e-38
1377.76 -3631.1201 -379.38199 1.8403113e-38
1344.4301 -3619.3101 -366.99301 1.8403113e-38
1315.37 -3626.2 -356.60501 1.8403113e-38
1264.15 -3897.97 -344.53299 1.8403113e-38
1275.84 -3574.47 -341.004 1.8403113e-38
1256.46 -3639.76 -335.53699 1.8403113e-38
1499.64 814.138 -316.82901 1.8403113e-38
1165.9 -3647.6101 -302.83401 1.8403113e-38
1135.63 -3644.8 -291.77399 1.8403113e-38
1441.78 763.61798 -297.03101 1.8403113e-38
1106.03 -3653.51 -281.23199 1.8403113e-38
1052.79 -4061.9299 -271.71201 1.8403113e-38
1074.15 -3634.2 -269.19101 1.8403113e-38
1017.66 -4043.1001 -258.50101 1.8403113e-38
1045.04 -3647.3601 -258.935 1.8403113e-38
1264.4 667.05499 -234.929 1.8403113e-38
1274.5601 696.47699 -237.911 1.8403113e-38
1271.3 700.48199 -236.632 1.8403113e-38
1215.21 544.57397 -220.008 1.8403113e-38
1220.66 544.56 -221.989 1.8403113e-38
1225.91 613.69098 -222.235 1.8403113e-38
1206.4399 554.89899 -216.576 1.8403113e-38
1215.17 558.65802 -219.655 1.8403113e-38
1199.12 560.93201 -213.772 1.8403113e-38
1216.5601 587.33899 -219.47 1.8403113e-38
833.61102 -4484.25 -202.258 1.8403113e-38
857.24103 -4166.2402 -203.19901 1.8403113e-38
925.66498 -3241.9399 -205.839 1.8403113e-38
868.29797 -3703.8301 -196.103 1.8403113e-38
877.367 -3325.0901 -190.29601 1.8403113e-38
898.48499 -3242.8899 -195.99001 1.8403113e-38
796.73798 -4477.0601 -188.694 1.8403113e-38
1105.6801 526.01898 -180.677 1.8403113e-38
1211 2117.4199 -180.685 1.8403113e-38
1227.27 2124.8301 -186.41499 1.8403113e-38
760.31897 -4478.9399 -175.513 1.8403113e-38
1078.65 509.05701 -171.265 1.8403113e-38
1089.1 508.896 -175.065 1.8403113e-38
1080.27 516.15997 -171.685 1.8403113e-38
1188.97 2121.6001 -172.58501 1.8403113e-38
723.71198 -4479.02 -162.22 1.8403113e-38
1175.5601 2125.5 -167.619 1.8403113e-38
1022.21 466.17599 -151.8 1.8403113e-38
1035.425 469.34549 -156.5235 1.8403113e-38
1028.95 480.26801 -153.907 1.8403113e-38
1019.53 499.86899 -150.017 1.8403113e-38
1027.5699 492.85699 -153.103 1.8403113e-38
1026.67 515.88501 -152.22501 1.8403113e-38
1036.5699 511.27301 -155.93201 1.8403113e-38
1136.53 2116.29 -153.66701 1.8403113e-38
1151.78 2121.51 -159.08099 1.8403113e-38
687.26898 -4479.2798 -148.991 1.8403113e-38
997.51398 488.09698 -142.30299 1.8403113e-38
992.62402 495.57001 -140.34801 1.8403113e-38
1005.74 497.46701 -145.06599 1.8403113e-38
1047.3101 1180.29 -143.754 1.8403113e-38
1047.26 1230.88 -142.52 1.8403113e-38
1113.96 2116.78 -145.45799 1.8403113e-38
1100.58 2120.04 -140.52 1.8403113e-38
650.67603 -4479.6201 -135.709 1.8403113e-38
969.21899 495.15799 -131.858 1.8403113e-38
977.90747 492.3215 -135.0815 1.8403113e-38
990.013 495.38 -139.40401 1.8403113e-38
970.40002 501.70801 -132.129 1.8403113e-38
1010.08 796.81897 -139.448 1.8403113e-38
614.38202 -4470.25 -122.303 1.8403113e-38
948.41302 498.095 -124.231 1.8403113e-38
959.711 498.49701 -128.32401 1.8403113e-38
938.95203 503.323 -120.66901 1.8403113e-38
947.255 500.09601 -123.762 1.8403113e-38
959 501.47699 -127.994 1.8403113e-38
958.64203 567.79797 -126.271 1.8403113e-38
959.79401 576.21997 -126.487 1.8403113e-38
957.98602 593.59601 -125.413 1.8403113e-38
973.27698 635.83801 -129.951 1.8403113e-38
957.74799 726.10699 -122.142 1.8403113e-38
956.18597 731.92297 -121.435 1.8403113e-38
963.69501 844.75702 -121.451 1.8403113e-38
970.20801 851.15802 -123.663 1.8403113e-38
948.896 741.28699 -118.562 1.8403113e-38
949.04199 752.71802 -118.341 1.8403113e-38
1041.47 2118.8999 -119.08 1.8403113e-38
1028.6899 2125.49 -114.281 1.8403113e-38
578.42798 -4447.8701 -108.708 1.8403113e-38
917.59003 831.65802 -105.021 1.8403113e-38
916.17499 842.05298 -104.258 1.8403113e-38
991.94397 2121.25 -101.037 1.8403113e-38
1005.79 2121.8899 -106.049 1.8403113e-38
539.82202 -4520.8501 -96.440804 1.8403113e-38
969.32098 2118.26 -92.892998 1.8403113e-38
305.53699 -7792.0801 -89.9589 1.8403113e-38
498.69199 -4620.6201 -83.900703 1.8403113e-38
955.922 2120.29 -87.978203 1.8403113e-38
920.65503 2124.6001 -75.066399 1.8403113e-38
934.09003 2122.8799 -79.987 1.8403113e-38
239.716 -7787.71 -65.949203 1.8403113e-38
885.31799 2128.26 -62.144798 1.8403113e-38
898.784 2126.8401 -67.069397 1.8403113e-38
863.41302 2130.1499 -54.1441 1.8403113e-38
178.256 -7784.9399 -43.5616 1.8403113e-38
827.40002 2123.8201 -41.217201 1.8403113e-38
849.92102 2131.26 -49.2173 1.8403113e-38
