# .PCD v0.7 - Point Cloud Data file format
VERSION 0.7
FIELDS x y z rgb
SIZE 4 4 4 4
TYPE F F F F
COUNT 1 1 1 1
WIDTH 348
HEIGHT 1
VIEWPOINT 0 0 0 1 0 0 0
POINTS 348
DATA ascii
686.69397 -1168.74 -290.125 1.8403113e-38
985.65302 -391.655 -290.34299 1.8403113e-38
1000.92 -364.452 -291.98099 1.8403113e-38
1004.45 -344.125 -290.53 1.8403113e-38
1008.34 -334.61899 -290.612 1.8403113e-38
1048.84 -228.062 -290.47299 1.8403113e-38
1226.92 234.922 -290.58899 1.8403113e-38
1252.42 301.47 -290.573 1.8403113e-38
1265.28 329.77301 -291.25201 1.8403113e-38
1321.34 465.29001 -292.62299 1.8403113e-38
622.867 -1278.76 -282.789 1.8403113e-38
630.745 -1267.04 -283.936 1.8403113e-38
638.013 -1254.4301 -284.76199 1.8403113e-38
644.17401 -1240.13 -284.98999 1.8403113e-38
646.758 -1220.01 -283.24301 1.8403113e-38
661.362 -1220.59 -288.28101 1.8403113e-38
675.09998 -1195.92 -289.73199 1.8403113e-38
656.57599 -1188.97 -282.53101 1.8403113e-38
675.84998 -1174.22 -287.155 1.8403113e-38
684.86401 -1143.92 -286.26501 1.8403113e-38
696.01898 -1139.14 -289.43201 1.8403113e-38
698.51001 -1121.59 -287.98999 1.8403113e-38
695.841 -1097.02 -283.87799 1.8403113e-38
704.45398 -1088.99 -285.75699 1.8403113e-38
707.388 -1073.15 -284.68701 1.8403113e-38
708.41602 -1055.03 -282.673 1.8403113e-38
718.95801 -1049.97 -285.59601 1.8403113e-38
720.77301 -1033.4301 -284.05499 1.8403113e-38
725.30798 -1020.71 -283.936 1.8403113e-38
731.474 -1010.24 -284.66501 1.8403113e-38
736.92902 -998.98798 -285.05099 1.8403113e-38
738.01501 -982.57599 -283.28 1.8403113e-38
746.24103 -974.98798 -285.08499 1.8403113e-38
748.83502 -960.81201 -284.117 1.8403113e-38
755.633 -951.698 -285.23801 1.8403113e-38
754.76801 -933.99402 -282.63501 1.8403113e-38
767.05603 -931.21301 -286.448 1.8403113e-38
769.07098 -917.08197 -285.289 1.8403113e-38
771.56299 -903.68799 -284.388 1.8403113e-38
785.04303 -902.01099 -288.75 1.8403113e-38
781.36499 -882.44598 -284.948 1.8403113e-38
788.10199 -873.82703 -286.11301 1.8403113e-38
794.76398 -865.15601 -287.246 1.8403113e-38
797.27502 -852.46198 -286.44299 1.8403113e-38
797.586 -837.82898 -284.64001 1.8403113e-38
807.38702 -832.34998 -287.255 1.8403113e-38
805.33197 -815.83698 -284.40302 1.8403113e-38
814.29401 -809.60699 -286.63599 1.8403113e-38
811.90698 -793.21198 -283.686 1.8403113e-38
817.86499 -784.40198 -284.561 1.8403113e-38
826.61902 -778.01001 -286.702 1.8403113e-38
826.65503 -764.21399 -284.91501 1.8403113e-38
834.54602 -757.10699 -286.66901 1.8403113e-38
837.25201 -745.75098 -286.10699 1.8403113e-38
843.53497 -737.35101 -287.146 1.8403113e-38
844.539 -724.828 -285.854 1.8403113e-38
849.151 -715.22101 -286.168 1.8403113e-38
852.91901 -705.02301 -286.11801 1.8403113e-38
856.58899 -694.81598 -286.03299 1.8403113e-38
867.03998 -689.57501 -288.901 1.8403113e-38
872.09497 -680.37903 -289.41901 1.8403113e-38
870.10303 -666.30402 -286.90601 1.8403113e-38
874.95502 -657.104 -287.354 1.8403113e-38
879.72699 -647.87 -287.772 1.8403113e-38
877.32599 -633.95898 -285.14099 1.8403113e-38
885.86102 -627.271 -287.16901 1.8403113e-38
888.78003 -616.96997 -286.81699 1.8403113e-38
896.41101 -609.63098 -288.452 1.8403113e-38
896.74103 -597.82599 -287.02499 1.8403113e-38
900.18903 -587.98297 -286.91199 1.8403113e-38
899.474 -575.77301 -285.077 1.8403113e-38
906.81598 -568.26099 -286.59201 1.8403113e-38
908.34998 -557.47302 -285.70499 1.8403113e-38
913.086 -548.49701 -286.14401 1.8403113e-38
915.255 -538.16101 -285.53299 1.8403113e-38
923.172 -530.85999 -287.271 1.8403113e-38
924.03149 -514.23798 -285.3945 1.8403113e-38
932.27301 -501.40201 -286.51999 1.8403113e-38
934.849 -491.42801 -286.09399 1.8403113e-38
935.62799 -480.664 -284.95499 1.8403113e-38
944.01898 -473.396 -286.858 1.8403113e-38
947.20398 -463.75101 -286.68201 1.8403113e-38
954.62799 -455.93399 -288.185 1.8403113e-38
955.92902 -445.49301 -287.26501 1.8403113e-38
958.87598 -435.77399 -286.99899 1.8403113e-38
962.61401 -426.38501 -287.04401 1.8403113e-38
968.02802 -417.64001 -287.74301 1.8403113e-38
968.97699 -407.189 -286.702 1.8403113e-38
976.01202 -399.00101 -288.02499 1.8403113e-38
985.341 -375.40649 -288.117 1.8403113e-38
998.69098 -353.03201 -289.73401 1.8403113e-38
1004.01 -322.785 -287.59601 1.8403113e-38
1012.27 -314.50299 -289.32101 1.8403113e-38
1017.74 -305.38699 -289.992 1.8403113e-38
1019.5 -295.28299 -289.271 1.8403113e-38
1023 -285.617 -289.19901 1.8403113e-38
1028.25 -276.33801 -289.77499 1.8403113e-38
1025.17 -265.15701 -287.26901 1.8403113e-38
1031.1899 -256.01099 -288.121 1.8403113e-38
1032.53 -245.84599 -287.25 1.8403113e-38
1041.1801 -237.10699 -289.04901 1.8403113e-38
1038.8101 -215.841 -285.47198 1.8403113e-38
1052.83 -207.791 -289.18301 1.8403113e-38
1055.62 -197.778 -288.828 1.8403113e-38
1052.74 -186.924 -286.43301 1.8403113e-38
1058.17 -177.283 -287.021 1.8403113e-38
1059.79 -167.09 -286.23901 1.8403113e-38
1060.38 -156.776 -285.095 1.8403113e-38
1071.2 -147.58 -287.573 1.8403113e-38
1074.45 -137.464 -287.358 1.8403113e-38
1079.5 -127.473 -287.76999 1.8403113e-38
1083.53 -117.33 -287.815 1.8403113e-38
1082.77 -106.796 -286.18201 1.8403113e-38
1080.97 -96.232803 -284.19501 1.8403113e-38
1092.3 -86.403801 -286.76099 1.8403113e-38
1091.28 -75.853996 -285.03799 1.8403113e-38
1100.5601 -65.684898 -286.866 1.8403113e-38
1100.3101 -55.125599 -285.40399 1.8403113e-38
1104.71 -44.6539 -285.53101 1.8403113e-38
1107.12 -34.099998 -284.97601 1.8403113e-38
1105.66 -23.5221 -283.10001 1.8403113e-38
1114.54 -12.8528 -284.72299 1.8403113e-38
1119.54 -2.1092801 -285.01999 1.8403113e-38
1115.92 8.4596701 -282.41199 1.8403113e-38
1124.53 19.443701 -283.90601 1.8403113e-38
1123.58 30.118799 -282.19 1.8403113e-38
1133.91 41.429501 -284.224 1.8403113e-38
1136.5601 52.4179 -283.69299 1.8403113e-38
1140.08 63.524101 -283.43799 1.8403113e-38
1138.76 74.2892 -281.58701 1.8403113e-38
1145.88 85.833099 -282.49899 1.8403113e-38
1146.27 96.820801 -281.20001 1.8403113e-38
1158.87 109.202 -283.86401 1.8403113e-38
1158.12 120.201 -282.177 1.8403113e-38
1161.0699 131.68401 -281.67899 1.8403113e-38
1161.08 142.827 -280.23099 1.8403113e-38
1172.3199 155.66499 -282.37399 1.8403113e-38
1174.02 167.217 -281.444 1.8403113e-38
1179.38 179.438 -281.67401 1.8403113e-38
1181.8199 191.263 -280.95999 1.8403113e-38
1208.5699 207.69299 -287.905 1.8403113e-38
1215.46 220.75999 -288.543 1.8403113e-38
1212.0601 243.68401 -284.39499 1.8403113e-38
1215.8101 256.371 -284.017 1.8403113e-38
1212 267.397 -281.28201 1.8403113e-38
1221.12 281.53 -282.54001 1.8403113e-38
1230.62 308.14801 -282.29599 1.8403113e-38
1244.25 336.465 -283.233 1.8403113e-38
1270.23 356.45999 -289.453 1.8403113e-38
1256.33 377.70599 -281.95801 1.8403113e-38
1273.91 370.31299 -288.89499 1.8403113e-38
1270.79 395.05399 -284.608 1.8403113e-38
1274.1 409.07001 -283.90399 1.8403113e-38
1291.87 428.11899 -287.457 1.8403113e-38
1291.24 441.159 -285.54199 1.8403113e-38
1305.02 472.957 -286.07501 1.8403113e-38
1314.8199 490.27899 -287.14801 1.8403113e-38
1257.86 481.88901 -268.888 1.8403113e-38
1841.3101 2088.54 -257.56 1.8403113e-38
1810.53 2089.3401 -246.99699 1.8403113e-38
1162.53 457.09698 -239.728 1.8403113e-38
1155.3101 466.52399 -236.045 1.8403113e-38
1153.37 478.09601 -233.87601 1.8403113e-38
1155.77 491.57401 -232.93401 1.8403113e-38
1776.61 2085.98 -235.91 1.8403113e-38
1746.08 2085.95 -225.53999 1.8403113e-38
1105.76 482.091 -217.17999 1.8403113e-38
1714.4 2084 -215.02901 1.8403113e-38
1689.17 2089.3101 -205.763 1.8403113e-38
1040.96 464.97 -197.394 1.8403113e-38
1653.35 2081.1699 -194.65401 1.8403113e-38
999.18597 468.336 -182.759 1.8403113e-38
1014.34 464.185 -188.44901 1.8403113e-38
1617.16 2071.77 -183.58299 1.8403113e-38
988.40601 474.354 -178.312 1.8403113e-38
1604.48 2091.6599 -176.67999 1.8403113e-38
959.31799 471.18301 -168.841 1.8403113e-38
1580.08 2096.47 -167.763 1.8403113e-38
929.47601 467.08401 -159.23599 1.8403113e-38
915.30798 470.49701 -153.97701 1.8403113e-38
895.98602 470.96701 -147.35001 1.8403113e-38
890.784 489.233 -143.19901 1.8403113e-38
904.99402 486.328 -148.407 1.8403113e-38
866.39203 486.202 -135.306 1.8403113e-38
1216.71 1366.1801 -139.552 1.8403113e-38
1426.28 1929.42 -137.293 1.8403113e-38
1430.01 1968.51 -133.459 1.8403113e-38
1441.41 2019.0601 -130.73801 1.8403113e-38
1468.3101 2092.6001 -130.28799 1.8403113e-38
815.03302 467.29199 -120.322 1.8403113e-38
1435.65 2083.6399 -120.359 1.8403113e-38
793.03198 474.19699 -111.946 1.8403113e-38
806.98102 472.54599 -116.9 1.8403113e-38
1092.61 1208.77 -117.917 1.8403113e-38
761.07001 474.27701 -101.074 1.8403113e-38
780.78101 476.642 -107.464 1.8403113e-38
1347.7 1993.9399 -102.176 1.8403113e-38
756.81299 486.12799 -98.082298 1.8403113e-38
747.49902 494.73099 -93.795303 1.8403113e-38
760.505 513.21399 -95.803703 1.8403113e-38
756.26398 520.40698 -93.424202 1.8403113e-38
758.40601 532.01703 -92.637497 1.8403113e-38
758.013 542.00598 -91.200996 1.8403113e-38
838.10999 693.50299 -98.655296 1.8403113e-38
846.81201 713.242 -99.037201 1.8403113e-38
854.50299 732.547 -99.1325 1.8403113e-38
848.46301 740.51202 -96.0411 1.8403113e-38
854.25702 758.76501 -95.628899 1.8403113e-38
849.47601 768.02399 -92.796501 1.8403113e-38
850.474 782.526 -91.243896 1.8403113e-38
964.04498 1051.47 -94.752197 1.8403113e-38
1315.0699 1982 -92.642998 1.8403113e-38
1336.38 2050.0601 -91.007103 1.8403113e-38
753.53101 549.16498 -88.744102 1.8403113e-38
760.87097 564.95898 -89.178001 1.8403113e-38
755.40997 571.54901 -86.462898 1.8403113e-38
760.85999 586.37598 -86.380699 1.8403113e-38
755.23102 592.94397 -83.611 1.8403113e-38
756.51099 604.90802 -82.485603 1.8403113e-38
781.48798 635.94397 -86.923798 1.8403113e-38
820.138 782.138 -80.986702 1.8403113e-38
842.55902 789.10199 -87.6968 1.8403113e-38
1322.24 2066.0701 -84.114197 1.8403113e-38
807.85498 798.02197 -74.740898 1.8403113e-38
816.54401 792.48401 -78.415703 1.8403113e-38
801.25403 805.534 -71.517899 1.8403113e-38
869.99701 935.16498 -77.966797 1.8403113e-38
1314.41 2092.04 -78.065804 1.8403113e-38
243.564 -584.435 -63.334 1.8403113e-38
791.78302 810.19202 -67.6922 1.8403113e-38
794.50647 834.27454 -65.476204 1.8403113e-38
1262.49 2087.1499 -61.060799 1.8403113e-38
1288.65 2090.1699 -69.557503 1.8403113e-38
213.72 -612.40302 -56.841301 1.8403113e-38
1240.61 2090.6399 -53.172699 1.8403113e-38
-34.387699 -1198.27 -48.960098 1.8403113e-38
-25.882799 -1138.24 -44.0187 1.8403113e-38
193.146 -579.52502 -45.561699 1.8403113e-38
190.362 -548.22803 -40.5331 1.8403113e-38
204.47501 -531.47601 -43.143398 1.8403113e-38
210.97301 -533.23901 -45.581501 1.8403113e-38
1215.17 2087.8799 -44.888699 1.8403113e-38
-73.424599 -1196.84 -35.508999 1.8403113e-38
195.04201 -523.56403 -38.906101 1.8403113e-38
187.026 -518.12598 -35.473099 1.8403113e-38
1192.89 2089.99 -37.043301 1.8403113e-38
-20.6658 -1000.98 -27.8864 1.8403113e-38
163.98599 -524.91602 -28.530001 1.8403113e-38
175.005 -503.82599 -29.5229 1.8403113e-38
1146.51 2090 -21.282 1.8403113e-38
1172.16 2094.45 -29.414801 1.8403113e-38
-15.5472 -921.18701 -19.217501 1.8403113e-38
26.256399 -745.16498 -10.4609 1.8403113e-38
138.983 -488.68701 -15.3082 1.8403113e-38
143.644 -488.56601 -16.876101 1.8403113e-38
130.02699 -477.935 -10.8625 1.8403113e-38
1120.53 2084.3601 -13.1889 1.8403113e-38
-331.68301 -1598.13 -0.100781 1.8403113e-38
-45.451199 -921.20502 -9.0587502 1.8403113e-38
-3.20544 -760.10901 -2.3993499 1.8403113e-38
30.481001 -728.50598 -9.7233295 1.8403113e-38
105.246 -510.78201 -6.7267699 1.8403113e-38
98.8339 -504.90302 -3.7811601 1.8403113e-38
106.89 -501.767 -6.1097102 1.8403113e-38
114.89767 -498.474 -8.4009628 1.8403113e-38
119.833 -486.85101 -8.5616102 1.8403113e-38
123.381 -472.48099 -7.89288 1.8403113e-38
117.533 -468.754 -5.4195299 1.8403113e-38
1095.1899 2079.3 -5.2403798 1.8403113e-38
-336.927 -1554.87 7.3238902 1.8403113e-38
-74.1745 -883.409 5.6315198 1.8403113e-38
-15.7038 -756.43701 2.3264999 1.8403113e-38
-10.5847 -738.05701 2.9846499 1.8403113e-38
14.8934 -691.07898 0.455497 1.8403113e-38
24.591999 -631.61102 4.91716 1.8403113e-38
72.048103 -540.76501 0.64244801 1.8403113e-38
59.1796 -524.12701 7.1853199 1.8403113e-38
62.2728 -518.15503 6.9133601 1.8403113e-38
72.69175 -515.50751 3.71838 1.8403113e-38
73.006104 -491.298 6.7695298 1.8403113e-38
90.285004 -491.46301 0.87686801 1.8403113e-38
76.160301 -464.95648 9.1339397 1.8403113e-38
-338.19501 -1494.96 15.5698 1.8403113e-38
-58.507801 -767.03699 15.4882 1.8403113e-38
4.1854401 -633.85199 11.5588 1.8403113e-38
-5.701725 -605.30902 18.6418 1.8403113e-38
20.809 -563.28497 15.1154 1.8403113e-38
45.289101 -520.73297 12.3479 1.8403113e-38
27.555599 -517.81799 18.753901 1.8403113e-38
33.066349 -512.56848 17.566151 1.8403113e-38
47.890301 -511.96899 12.6073 1.8403113e-38
53.377499 -517.60303 10.0079 1.8403113e-38
38.6521 -508.23199 16.233801 1.8403113e-38
70.218597 -465.47198 11.0856 1.8403113e-38
-342.09698 -1452.71 22.407499 1.8403113e-38
-51.8951 -646.81897 28.9231 1.8403113e-38
23.431101 -518.68298 20.0425 1.8403113e-38
17.9366 -509.758 23.0737 1.8403113e-38
-71.719002 -624.43201 38.5793 1.8403113e-38
738.77899 1452.39 34.0895 1.8403113e-38
-379.966 -1405.33 41.455399 1.8403113e-38
-388.198 -1390.15 46.2323 1.8403113e-38
-347.89801 -1318.27 41.914902 1.8403113e-38
-89.995796 -601.31299 47.805401 1.8403113e-38
-75.747803 -603.58301 42.6679 1.8403113e-38
-84.173401 -584.58502 48.009102 1.8403113e-38
-78.948402 -573.76099 47.645599 1.8403113e-38
650.802 1340.99 49.451801 1.8403113e-38
666.09302 1343 44.518101 1.8403113e-38
-258.29099 -1003.33 52.550201 1.8403113e-38
-93.9114 -590.22198 50.5826 1.8403113e-38
-98.5047 -589.00897 52.301601 1.8403113e-38
-106.193 -572.59399 57.055199 1.8403113e-38
-100.999 -565.95697 56.1563 1.8403113e-38
619.13098 1333.76 59.270699 1.8403113e-38
636.48401 1340.6 54.265202 1.8403113e-38
-242.291 -893.53699 61.435001 1.8403113e-38
-147.14101 -597.22498 67.756104 1.8403113e-38
-140.657 -587.06 66.8787 1.8403113e-38
-124.729 -574.26068 63.136265 1.8403113e-38
-115.005 -569.89398 60.401699 1.8403113e-38
-108.835 -555.42999 60.191898 1.8403113e-38
589.57501 1329.4301 68.747902 1.8403113e-38
604.099 1331.23 64.047699 1.8403113e-38
-491.25699 -1409.84 78.682198 1.8403113e-38
-475.12701 -1398.05 74.739502 1.8403113e-38
-457.48499 -1380.34 71.055603 1.8403113e-38
-393.58401 -1203.16 72.453903 1.8403113e-38
-238.202 -760.45697 77.405098 1.8403113e-38
558.68201 1320.79 78.1185 1.8403113e-38
574.703 1326.5601 73.427299 1.8403113e-38
-513.93402 -1402.5601 87.337799 1.8403113e-38
-502.61301 -1406.25 83.009003 1.8403113e-38
-245.375 -717.36798 85.462997 1.8403113e-38
-225.241 -687.50897 82.516899 1.8403113e-38
-215.59 -631.18903 86.584099 1.8403113e-38
530.60797 1316.97 87.158699 1.8403113e-38
541.17902 1311.1801 82.812103 1.8403113e-38
-527.84003 -1406.3199 91.572701 1.8403113e-38
-536.80402 -1395.8 95.990997 1.8403113e-38
502.42599 1311.61 96.035698 1.8403113e-38
516.08899 1313.4399 91.632401 1.8403113e-38
-561.31097 -1393.29 104.645 1.8403113e-38
-547.68103 -1390.85 100.333 1.8403113e-38
-571.78302 -1387.1899 109 1.8403113e-38
462.54199 1307.1 109 1.8403113e-38
474.92599 1306.5699 104.723 1.8403113e-38
489.57401 1311.48 100.386 1.8403113e-38
