# .PCD v0.7 - Point Cloud Data file format
VERSION 0.7
FIELDS x y z rgb
SIZE 4 4 4 4
TYPE F F F F
COUNT 1 1 1 1
WIDTH 350
HEIGHT 1
VIEWPOINT 0 0 0 1 0 0 0
POINTS 350
DATA ascii
594.30402 -1185.58 -292.138 1.8403113e-38
1320.4301 295.604 -292.30899 1.8403113e-38
1320.9301 308.79999 -290.35999 1.8403113e-38
1339.04 326.65302 -293.42001 1.8403113e-38
1336.49 339.297 -290.561 1.8403113e-38
1346.84 355.55899 -291.34 1.8403113e-38
565.50897 -1182.62 -282.25299 1.8403113e-38
570.11798 -1167.15 -281.28201 1.8403113e-38
584.59198 -1146.12 -282.646 1.8403113e-38
594.62701 -1140.46 -285.01801 1.8403113e-38
598.58002 -1124.95 -283.828 1.8403113e-38
604.37 -1112.7 -283.759 1.8403113e-38
610.01001 -1100.4399 -283.63901 1.8403113e-38
618.125 -1092.15 -284.96399 1.8403113e-38
624.56403 -1081.4301 -285.35199 1.8403113e-38
631.41998 -1071.47 -285.99701 1.8403113e-38
634.349 -1056 -284.478 1.8403113e-38
644.25403 -1050.65 -286.85999 1.8403113e-38
658.888 -1032.79 -288.78299 1.8403113e-38
642.39301 -1029.03 -282.789 1.8403113e-38
654.34003 -1008.21 -283.36099 1.8403113e-38
663.32501 -1001.91 -285.289 1.8403113e-38
663.48499 -984.29999 -282.521 1.8403113e-38
669.32501 -974.203 -282.81299 1.8403113e-38
678.04999 -967.76703 -284.634 1.8403113e-38
681.89001 -955.39801 -283.909 1.8403113e-38
689.86298 -948.12 -285.35001 1.8403113e-38
690.36603 -932.13599 -282.95499 1.8403113e-38
693.77802 -919.79498 -282.09399 1.8403113e-38
705.237 -916.672 -285.33899 1.8403113e-38
710.34802 -906.39301 -285.36401 1.8403113e-38
712.13599 -892.61902 -283.74301 1.8403113e-38
719.59302 -885.09497 -284.97601 1.8403113e-38
721.09698 -871.35797 -283.26801 1.8403113e-38
731.68103 -867.14801 -286.05301 1.8403113e-38
734.26398 -854.76501 -284.91501 1.8403113e-38
739.39301 -845.065 -285.03799 1.8403113e-38
743.74701 -834.685 -284.79901 1.8403113e-38
749.35999 -825.599 -285.17899 1.8403113e-38
750.05798 -811.96399 -283.224 1.8403113e-38
756.85101 -804.13397 -284.19 1.8403113e-38
765.68402 -798.14099 -286.11801 1.8403113e-38
768.12598 -786.42603 -285.04001 1.8403113e-38
776.13501 -779.67999 -286.578 1.8403113e-38
773.33502 -763.677 -283.10001 1.8403113e-38
786.23999 -761.10199 -286.90601 1.8403113e-38
783.14697 -745.19397 -283.34799 1.8403113e-38
790.125 -737.68597 -284.42599 1.8403113e-38
793.35199 -727.19 -283.79999 1.8403113e-38
800.93701 -720.16101 -285.15399 1.8403113e-38
800.23199 -706.78101 -282.78101 1.8403113e-38
818.98901 -708.117 -289.12601 1.8403113e-38
820.37701 -696.37402 -287.69901 1.8403113e-38
820.10797 -683.56897 -285.561 1.8403113e-38
825.84802 -675.16302 -286.091 1.8403113e-38
827.64801 -664.03802 -284.89801 1.8403113e-38
837.12299 -658.20801 -287.06201 1.8403113e-38
839.521 -647.58002 -286.14401 1.8403113e-38
839.44598 -635.42798 -284.173 1.8403113e-38
846.375 -627.88 -285.23001 1.8403113e-38
846.87 -616.276 -283.534 1.8403113e-38
856.06702 -610.10901 -285.552 1.8403113e-38
861.203 -601.41101 -285.83801 1.8403113e-38
866.26898 -592.67102 -286.09399 1.8403113e-38
859.84601 -577.34399 -281.54099 1.8403113e-38
872.086 -572.76599 -284.80899 1.8403113e-38
880.21002 -565.74902 -286.341 1.8403113e-38
885.81097 -557.297 -286.81799 1.8403113e-38
882.19501 -543.98602 -283.504 1.8403113e-38
889.29303 -536.36902 -284.60501 1.8403113e-38
898.86298 -529.93103 -286.702 1.8403113e-38
903.34198 -520.88202 -286.71701 1.8403113e-38
906.89899 -511.39099 -286.35999 1.8403113e-38
915.48199 -504.267 -288.02499 1.8403113e-38
917.18597 -493.91 -286.923 1.8403113e-38
923.08698 -485.47501 -287.50201 1.8403113e-38
922.02802 -473.98401 -285.315 1.8403113e-38
931.23999 -466.94601 -287.20001 1.8403113e-38
934.33301 -457.27499 -286.66199 1.8403113e-38
938.21399 -447.93799 -286.436 1.8403113e-38
942.01898 -438.57001 -286.17899 1.8403113e-38
952.77899 -431.841 -288.61899 1.8403113e-38
955.57098 -422.02301 -287.95901 1.8403113e-38
958.28003 -412.19299 -287.271 1.8403113e-38
961.79199 -402.659 -286.892 1.8403113e-38
969.68103 -394.603 -288.181 1.8403113e-38
972.15503 -384.68201 -287.401 1.8403113e-38
974.54401 -374.75201 -286.59201 1.8403113e-38
979.547 -365.64099 -286.76801 1.8403113e-38
985.383 -356.73999 -287.25 1.8403113e-38
987.534 -346.72699 -286.35001 1.8403113e-38
1000.49 -339.72198 -289.46301 1.8403113e-38
995.21802 -327.65399 -285.80801 1.8403113e-38
1005.795 -314.49951 -287.15948 1.8403113e-38
1013.51 -300.49899 -287.43701 1.8403113e-38
1015.515 -285.09799 -285.62851 1.8403113e-38
1022.89 -270.88101 -285.76099 1.8403113e-38
1031.71 -262.11499 -287.242 1.8403113e-38
1034.92 -252.161 -286.69501 1.8403113e-38
1038.04 -242.174 -286.11801 1.8403113e-38
1038.29 -231.679 -284.51999 1.8403113e-38
1048.71 -222.853 -286.51099 1.8403113e-38
1051.6 -212.729 -285.83401 1.8403113e-38
1058.15 -203.106 -286.43399 1.8403113e-38
1056.1899 -192.267 -284.05899 1.8403113e-38
1067.28 -183.105 -286.216 1.8403113e-38
1064.21 -172.15401 -283.45801 1.8403113e-38
1072.33 -162.461 -284.561 1.8403113e-38
1070.02 -151.64999 -282.07401 1.8403113e-38
1082.7 -142.2 -284.707 1.8403113e-38
1081.16 -131.446 -282.48099 1.8403113e-38
1090.87 -121.505 -284.06201 1.8403113e-38
1091.99 -110.905 -282.73099 1.8403113e-38
1101.54 -100.721 -284.22299 1.8403113e-38
1102.49 -90.032799 -282.82199 1.8403113e-38
1109.04 -79.519203 -283.28 1.8403113e-38
1116.46 -68.920303 -284.00699 1.8403113e-38
1122.84 -58.186199 -284.37601 1.8403113e-38
1121.54 -47.317299 -282.20999 1.8403113e-38
1130.61 -36.4291 -283.42899 1.8403113e-38
1129.12 -25.534401 -281.20001 1.8403113e-38
1138.96 -14.4102 -282.63501 1.8403113e-38
1145.86 -3.20785 -283.09601 1.8403113e-38
1148.86 7.9548101 -282.289 1.8403113e-38
1154.62 19.309299 -282.354 1.8403113e-38
1153.63 30.366301 -280.26001 1.8403113e-38
1162.0601 42.052502 -281.14401 1.8403113e-38
1164.6899 53.444401 -280.17801 1.8403113e-38
1170.0699 65.127899 -280.06699 1.8403113e-38
1179.16 77.270302 -281.09299 1.8403113e-38
1186.24 89.376198 -281.47 1.8403113e-38
1193.46 113.152 -280.021 1.8403113e-38
1207.8199 126.579 -282.56699 1.8403113e-38
1217.33 139.597 -283.59 1.8403113e-38
1221.99 152.078 -283.11301 1.8403113e-38
1228.4301 164.94901 -283.15799 1.8403113e-38
1224.35 176.186 -280.02701 1.8403113e-38
1254.1899 193.40199 -287.02399 1.8403113e-38
1263.11 207.27901 -287.716 1.8403113e-38
1262.47 219.474 -285.55499 1.8403113e-38
1251.38 229.539 -280.31699 1.8403113e-38
1261.83 244.05701 -281.40799 1.8403113e-38
1283.41 261.29599 -285.70099 1.8403113e-38
1297.3101 277.18301 -287.703 1.8403113e-38
1342.1899 367.72299 -287.87299 1.8403113e-38
1350.4 383.702 -287.99799 1.8403113e-38
1351.99 397.849 -286.25201 1.8403113e-38
1348.84 410.577 -283.185 1.8403113e-38
1360.29 428.10199 -284.12299 1.8403113e-38
1371.5699 445.853 -284.96701 1.8403113e-38
1368.9399 459.05399 -281.99399 1.8403113e-38
1374.41 475.172 -281.20099 1.8403113e-38
1381.55 492.08301 -280.82599 1.8403113e-38
1185.63 100.744 -279.448 1.8403113e-38
1204.23 439.582 -231.276 1.8403113e-38
2004.3 2070.96 -231.565 1.8403113e-38
1153.6 432.70901 -215.827 1.8403113e-38
1141.0601 440.03201 -210.55499 1.8403113e-38
1148.28 455.228 -210.48 1.8403113e-38
1942.8199 2077.71 -210.388 1.8403113e-38
1142.77 465.33099 -207.063 1.8403113e-38
1147.03 479.57401 -206.173 1.8403113e-38
1118.15 479.46201 -196.752 1.8403113e-38
1907.4399 2075.4099 -199.192 1.8403113e-38
1873.5601 2074.0901 -188.332 1.8403113e-38
1034.24 454.14999 -173.38 1.8403113e-38
1846.51 2079.7 -178.592 1.8403113e-38
1015.44 457.05701 -166.77 1.8403113e-38
1576.73 1608.26 -165.89799 1.8403113e-38
1812.88 2077.54 -167.944 1.8403113e-38
969.99103 458.155 -151.73801 1.8403113e-38
981.659 452.61401 -156.439 1.8403113e-38
1783.33 2079.4299 -157.983 1.8403113e-38
944.28198 456.638 -143.577 1.8403113e-38
1755.17 2082.45 -148.29401 1.8403113e-38
922.14899 456.44601 -136.37399 1.8403113e-38
911.38397 461.681 -132.017 1.8403113e-38
1721.28 2078.28 -137.886 1.8403113e-38
878.578 465.677 -120.654 1.8403113e-38
891.93597 462.224 -125.573 1.8403113e-38
1692.04 2079.02 -128.209 1.8403113e-38
865.56702 479.58099 -114.175 1.8403113e-38
877.25299 475.48199 -118.651 1.8403113e-38
858.13501 485.922 -110.731 1.8403113e-38
1664.16 2080.9399 -118.79 1.8403113e-38
274.94501 -677.07098 -106.33 1.8403113e-38
832.00098 481.35999 -102.919 1.8403113e-38
1635.11 2080.95 -109.291 1.8403113e-38
791.63898 467.89301 -91.882896 1.8403113e-38
1574.88 2076.75 -90.280296 1.8403113e-38
1605.54 2079.8301 -99.809502 1.8403113e-38
785.16302 473.98499 -88.790497 1.8403113e-38
777.91199 489.561 -83.926598 1.8403113e-38
784.5 483.586 -87.036697 1.8403113e-38
1064.8 1077.21 -83.603104 1.8403113e-38
213.653 -576.55499 -70.202003 1.8403113e-38
746.42499 499.384 -72.061897 1.8403113e-38
758.84399 497.51099 -76.421204 1.8403113e-38
764.65503 491.228 -79.326599 1.8403113e-38
757.69098 517.01202 -72.921799 1.8403113e-38
820.44299 627.50598 -75.740097 1.8403113e-38
841.04901 655.06403 -78.062599 1.8403113e-38
842.55701 668.48602 -76.406799 1.8403113e-38
842.36102 680.75098 -74.378502 1.8403113e-38
841.25702 692.43701 -72.1465 1.8403113e-38
841.55499 705.39899 -70.168503 1.8403113e-38
1481.38 1990.87 -73.468597 1.8403113e-38
179.62 -605.79303 -63.759399 1.8403113e-38
186.86501 -608.48499 -66.5588 1.8403113e-38
742.758 517.052 -68.034203 1.8403113e-38
747.25098 530.39801 -67.365799 1.8403113e-38
738.19202 544.70801 -62.113499 1.8403113e-38
751.58502 543.85699 -66.627403 1.8403113e-38
777.23401 583.97302 -68.587601 1.8403113e-38
840.94397 717.77802 -67.986702 1.8403113e-38
834.90698 725.71899 -64.741898 1.8403113e-38
834.052 738.12 -62.4767 1.8403113e-38
833.802 751.20697 -60.299599 1.8403113e-38
167.033 -590.65503 -57.221699 1.8403113e-38
179.86 -580.61401 -59.806301 1.8403113e-38
171.14999 -550.34003 -52.112 1.8403113e-38
835.04901 779.50201 -56.176601 1.8403113e-38
840.79901 770.92297 -59.429699 1.8403113e-38
834.89502 807.35498 -51.666401 1.8403113e-38
843.078 800.789 -55.3922 1.8403113e-38
846.06598 832.29901 -51.323799 1.8403113e-38
1380.38 1891.5601 -56.3559 1.8403113e-38
1424.5601 1984.92 -55.8484 1.8403113e-38
1470.24 2083.1799 -55.048302 1.8403113e-38
141.46899 -544.29498 -41.442501 1.8403113e-38
178.235 -520.76099 -49.691502 1.8403113e-38
163.14349 -517.39453 -44.2197 1.8403113e-38
170.146 -515.54498 -46.2122 1.8403113e-38
841.20697 842.30298 -48.133701 1.8403113e-38
1443.6899 2083.1899 -46.367699 1.8403113e-38
117.478 -535.51398 -32.194801 1.8403113e-38
117.782 -523.68201 -30.3997 1.8403113e-38
123.781 -514.39099 -30.8729 1.8403113e-38
1345.01 1979.88 -30.6567 1.8403113e-38
103.708 -512.10498 -23.945999 1.8403113e-38
96.349297 -504.81201 -20.372801 1.8403113e-38
116.812 -509.20999 -27.7654 1.8403113e-38
770.323 829.84399 -26.959499 1.8403113e-38
1313.83 1970.4301 -21.977501 1.8403113e-38
82.246498 -503.43399 -15.5425 1.8403113e-38
93.032501 -508.353 -19.8556 1.8403113e-38
84.914703 -498.14999 -15.5686 1.8403113e-38
1306.4 1995.3101 -15.5649 1.8403113e-38
1335.15 2075.0801 -12.19 1.8403113e-38
-12.8805 -636.61298 -5.7743502 1.8403113e-38
-19.2645 -622.71698 -1.46259 1.8403113e-38
37.1595 -533.47803 -5.6161499 1.8403113e-38
41.5956 -524.0365 -5.5543952 1.8403113e-38
52.0728 -521.74701 -8.6123199 1.8403113e-38
46.320202 -516.46198 -5.8857799 1.8403113e-38
51.837502 -504.42899 -5.7625299 1.8403113e-38
50.535301 -484.36099 -2.1234901 1.8403113e-38
66.118698 -480.69699 -6.6304102 1.8403113e-38
71.967903 -485.67801 -9.3397999 1.8403113e-38
56.196136 -475.45969 -2.5485301 1.8403113e-38
1311.34 2076.8301 -4.1247101 1.8403113e-38
-73.3946 -697.26099 4.2941399 1.8403113e-38
-68.128601 -666.36102 7.5205202 1.8403113e-38
-28.558201 -630.966 0.25413701 1.8403113e-38
-24.910299 -614.61603 1.67988 1.8403113e-38
-44.7061 -608.14301 9.1866703 1.8403113e-38
-35.0415 -609.021 5.8871698 1.8403113e-38
-40.4562 -598.77802 9.2971497 1.8403113e-38
-13.1123 -587.98199 2.0883 1.8403113e-38
-9.6559601 -577.44098 2.64642 1.8403113e-38
-9.4607897 -542.57001 8.1661901 1.8403113e-38
-6.8134298 -530.10498 9.29671 1.8403113e-38
6.6444302 -534.27002 4.23106 1.8403113e-38
13.06795 -533.78302 2.209425 1.8403113e-38
-3.6679699 -522.48999 9.4879599 1.8403113e-38
1.2853301 -527.44299 7.07586 1.8403113e-38
18.4004 -527.45898 1.47916 1.8403113e-38
24.17285 -523.94397 0.15516509 1.8403113e-38
28.6654 -514.64301 0.176073 1.8403113e-38
1284.34 2073.27 4.1282701 1.8403113e-38
-444.05399 -1358.35 19.592899 1.8403113e-38
-78.253304 -625.40198 17.388399 1.8403113e-38
-63.634499 -619.66199 13.5292 1.8403113e-38
-56.69125 -607.28149 13.2421 1.8403113e-38
-49.844501 -599.76202 12.2083 1.8403113e-38
1236.5699 2074.52 19.9443 1.8403113e-38
1258.02 2070.23 12.2439 1.8403113e-38
-497.267 -1416.27 27.7124 1.8403113e-38
-483.29901 -1410.87 24.011 1.8403113e-38
-470.27899 -1408.2 20.1821 1.8403113e-38
-344.56201 -1143.21 21.521601 1.8403113e-38
-324.565 -1099.58 21.971001 1.8403113e-38
-96.792801 -601.14203 27.3326 1.8403113e-38
-91.732803 -590.22302 27.427099 1.8403113e-38
-84.915451 -594.026 24.589851 1.8403113e-38
1210.45 2070.8999 27.899 1.8403113e-38
-536.64203 -1422.11 39.646599 1.8403113e-38
-511.04199 -1420.5601 31.5264 1.8403113e-38
-522.117 -1416.1801 35.8484 1.8403113e-38
-282.81299 -957.60901 31.056801 1.8403113e-38
-247.298 -832.604 39.464298 1.8403113e-38
-105.988 -598.13898 30.818899 1.8403113e-38
-112.0695 -585.64197 34.807701 1.8403113e-38
-100.674 -585.32703 31.1334 1.8403113e-38
-118.03 -575.04498 38.452702 1.8403113e-38
1184.99 2067.8201 35.729 1.8403113e-38
-559.37701 -1414.67 48.269402 1.8403113e-38
-548.02802 -1418.4399 43.955502 1.8403113e-38
-227.504 -771.453 42.785999 1.8403113e-38
-204.966 -691.52002 48.2183 1.8403113e-38
-198.037 -684.59601 47.062199 1.8403113e-38
-188.133 -660.96997 47.608101 1.8403113e-38
-178.453 -636.25403 48.401699 1.8403113e-38
-170.02 -616.33698 48.834202 1.8403113e-38
-164.601 -613.02197 47.594002 1.8403113e-38
-158.04601 -601.79401 47.2495 1.8403113e-38
-152.811 -598.36902 46.0867 1.8403113e-38
-146.97099 -589.97302 45.522202 1.8403113e-38
-137.35001 -586.81799 42.8825 1.8403113e-38
-127.741 -582.50098 40.433102 1.8403113e-38
-140.39999 -574.62402 45.831902 1.8403113e-38
-131.173 -572.34998 43.180401 1.8403113e-38
-122.304 -572.87 40.197899 1.8403113e-38
1163.1899 2070.49 43.2817 1.8403113e-38
-585.45801 -1416.17 56.553299 1.8403113e-38
-573.76398 -1419.24 52.239498 1.8403113e-38
-243.843 -711.20599 57.773399 1.8403113e-38
1116.26 2069.01 58.386902 1.8403113e-38
1142.42 2074.6499 50.738098 1.8403113e-38
-624.862 -1417.4301 69.230904 1.8403113e-38
-608.04401 -1407.84 65.269897 1.8403113e-38
-594.98602 -1407.39 61.0737 1.8403113e-38
-257.54501 -718.20203 61.132 1.8403113e-38
-231.80099 -643.37701 64.698402 1.8403113e-38
1091.71 2065.6899 65.878601 1.8403113e-38
-650.91803 -1416.6801 77.867897 1.8403113e-38
-636.16803 -1412.96 73.641998 1.8403113e-38
-675.461 -1411.74 86.681297 1.8403113e-38
-664.97101 -1418.4 82.1856 1.8403113e-38
731.95898 1443.1801 83.787102 1.8403113e-38
-715.39801 -1410.2 99.9804 1.8403113e-38
-704.98199 -1417.21 95.453796 1.8403113e-38
-690.797 -1415.92 91.023598 1.8403113e-38
626.138 1327.29 99.819298 1.8403113e-38
640.10303 1326.8 95.176201 1.8403113e-38
655.50897 1328.8101 90.462601 1.8403113e-38
-745.23102 -1414.78 109 1.8403113e-38
-730.49298 -1413.02 104.463 1.8403113e-38
596.55103 1324.22 109 1.8403113e-38
611.31201 1325.84 104.433 1.8403113e-38
