# .PCD v0.7 - Point Cloud Data file format
VERSION 0.7
FIELDS x y z rgb
SIZE 4 4 4 4
TYPE F F F F
COUNT 1 1 1 1
WIDTH 339
HEIGHT 1
VIEWPOINT 0 0 0 1 0 0 0
POINTS 339
DATA ascii
557.93103 -1176.27 -290.228 1.8403113e-38
610.30402 -1085.28 -292.06201 1.8403113e-38
628.53198 -1044.86 -291.24701 1.8403113e-38
1308.1 286.00101 -290.09299 1.8403113e-38
1320.09 306.767 -290.52301 1.8403113e-38
541.328 -1161.96 -282.474 1.8403113e-38
566.039 -1158.4 -289.884 1.8403113e-38
568.289 -1147.73 -288.83801 1.8403113e-38
568.94202 -1118.45 -284.18301 1.8403113e-38
576.89801 -1117.58 -286.616 1.8403113e-38
585.56598 -1102.15 -286.858 1.8403113e-38
584.19397 -1086.73 -283.849 1.8403113e-38
591.87299 -1070.51 -283.64099 1.8403113e-38
600.57501 -1043.73 -282.00699 1.8403113e-38
606.12903 -1039.46 -283.09601 1.8403113e-38
613.45502 -1011.92 -280.89099 1.8403113e-38
624.45898 -1001.79 -282.76901 1.8403113e-38
629.224 -996.62903 -283.45499 1.8403113e-38
638.30499 -984.06201 -284.30701 1.8403113e-38
641.797 -977.34497 -284.32101 1.8403113e-38
647.64301 -960.979 -283.49399 1.8403113e-38
648.58398 -951.30103 -282.19 1.8403113e-38
657.65601 -939.34601 -283.14001 1.8403113e-38
658.39398 -929.69897 -281.776 1.8403113e-38
667.80499 -918.38898 -282.94299 1.8403113e-38
670.21399 -910.91302 -282.48099 1.8403113e-38
677.49402 -897.37799 -282.58801 1.8403113e-38
676.56598 -886.39301 -280.46201 1.8403113e-38
689.30103 -879.09497 -283.37299 1.8403113e-38
688.81598 -868.84698 -281.51199 1.8403113e-38
701.401 -856.58752 -283.54999 1.8403113e-38
711.16498 -841.46899 -284.19901 1.8403113e-38
712.30798 -833.29999 -283.211 1.8403113e-38
719.836 -820.85602 -283.57999 1.8403113e-38
719.44598 -811.40503 -281.883 1.8403113e-38
728.07397 -800.21198 -282.81601 1.8403113e-38
730.27502 -793.36401 -282.39099 1.8403113e-38
742.203 -785.20801 -284.89801 1.8403113e-38
742.88098 -777.073 -283.76501 1.8403113e-38
749.677 -764.40802 -283.85999 1.8403113e-38
751.625 -757.526 -283.34799 1.8403113e-38
757.44299 -744.20502 -283.017 1.8403113e-38
762.16498 -739.716 -283.79999 1.8403113e-38
772.88898 -730.45099 -285.733 1.8403113e-38
775.336 -724.112 -285.47198 1.8403113e-38
776.96802 -707.758 -283.28201 1.8403113e-38
781.52197 -703.14099 -283.98901 1.8403113e-38
787.35999 -690.21399 -283.73099 1.8403113e-38
791.83301 -685.52698 -284.39999 1.8403113e-38
800.508 -674.71198 -285.41199 1.8403113e-38
803.37299 -668.85699 -285.366 1.8403113e-38
802.56299 -651.51599 -282.22101 1.8403113e-38
807.63098 -647.25201 -283.15399 1.8403113e-38
812.75201 -634.16998 -282.638 1.8403113e-38
816.96198 -629.31097 -283.19299 1.8403113e-38
825.112 -614.45502 -283.36298 1.8403113e-38
834.27252 -596.52698 -283.34949 1.8403113e-38
838.297 -579.35303 -281.798 1.8403113e-38
848.76898 -578.05798 -284.974 1.8403113e-38
848.08197 -561.95099 -282.07401 1.8403113e-38
854.42102 -558.20697 -283.504 1.8403113e-38
864.87048 -544.66602 -284.63751 1.8403113e-38
873.48999 -530.08502 -285.005 1.8403113e-38
876.37097 -524.39502 -284.992 1.8403113e-38
879.09003 -510.453 -283.55499 1.8403113e-38
884.40997 -505.95401 -284.53 1.8403113e-38
895.41901 -495.93799 -286.42999 1.8403113e-38
892.992 -487.793 -284.29001 1.8403113e-38
906.00598 -475.03699 -286.38449 1.8403113e-38
915.38452 -457.05798 -286.4325 1.8403113e-38
921.51801 -441.185 -285.78101 1.8403113e-38
922.18402 -434.561 -284.89499 1.8403113e-38
929.03497 -422.418 -285.095 1.8403113e-38
931.35498 -416.44101 -284.853 1.8403113e-38
938.01501 -404.16299 -284.96899 1.8403113e-38
945.57001 -399.996 -286.72299 1.8403113e-38
947.59802 -386.03 -285.05801 1.8403113e-38
955.09399 -381.71399 -286.76801 1.8403113e-38
958.69598 -368.25601 -285.69699 1.8403113e-38
961.633 -362.401 -285.67499 1.8403113e-38
965.91498 -349.15601 -284.85999 1.8403113e-38
972.37903 -344.28799 -286.14401 1.8403113e-38
976.45697 -330.922 -285.24301 1.8403113e-38
978.29999 -324.69901 -284.806 1.8403113e-38
982.15601 -311.27399 -283.823 1.8403113e-38
989.38599 -306.383 -285.35101 1.8403113e-38
991.20099 -292.40302 -283.61499 1.8403113e-38
992.84198 -286.10599 -283.10001 1.8403113e-38
1003.64 -274.112 -284.603 1.8403113e-38
1002.42 -267.17099 -283.05301 1.8403113e-38
1010.26 -254.392 -283.46701 1.8403113e-38
1016.34 -248.87601 -284.51999 1.8403113e-38
1029.5699 -236.83701 -286.80399 1.8403113e-38
1025.34 -229.384 -284.19501 1.8403113e-38
1028.12 -215.44099 -282.77899 1.8403113e-38
1038.71 -210.373 -285.36401 1.8403113e-38
1043.255 -193.186 -283.9805 1.8403113e-38
1045.7 -175.70599 -281.866 1.8403113e-38
1052.37 -169.77699 -283.04099 1.8403113e-38
1058.25 -155.922 -282.64301 1.8403113e-38
1061.0699 -149.46201 -282.48099 1.8403113e-38
1066.73 -135.44501 -281.98401 1.8403113e-38
1073.22 -129.2 -283.04901 1.8403113e-38
1075.83 -114.794 -281.49701 1.8403113e-38
1086.01 -108.624 -283.76999 1.8403113e-38
1086.49 -93.966904 -281.48901 1.8403113e-38
1088.99 -87.259201 -281.18399 1.8403113e-38
1098.72 -72.867302 -281.94299 1.8403113e-38
1101.12 -66.061096 -281.58701 1.8403113e-38
1107.77 -51.348999 -281.29501 1.8403113e-38
1108.15 -44.454102 -280.27399 1.8403113e-38
1124.35 -22.5093 -281.871 1.8403113e-38
1131.47 -7.3075199 -281.651 1.8403113e-38
1148.03 15.5273 -283.215 1.8403113e-38
1147.11 22.5865 -281.745 1.8403113e-38
1157.45 45.671501 -281.25699 1.8403113e-38
1193.74 117.94 -280.99399 1.8403113e-38
1211.6 136.289 -283.73001 1.8403113e-38
1221.45 145.19 -285.439 1.8403113e-38
1238.99 164.20399 -287.95901 1.8403113e-38
1230.6801 170.588 -284.20499 1.8403113e-38
1231.8101 187.28799 -281.79599 1.8403113e-38
1232.84 195.16 -280.82101 1.8403113e-38
1257.29 216.392 -285.20999 1.8403113e-38
1256.28 224.067 -283.60699 1.8403113e-38
1256.8 241.14999 -280.935 1.8403113e-38
1273.54 252.63699 -284.44699 1.8403113e-38
1284.0601 272.30301 -284.58499 1.8403113e-38
1307.39 311.95901 -285.547 1.8403113e-38
1312.49 331.24301 -283.995 1.8403113e-38
1322.0699 342.21899 -285.272 1.8403113e-38
1324.95 361.289 -283.03299 1.8403113e-38
1330.61 371.45499 -283.17801 1.8403113e-38
1336.83 391.84399 -281.80301 1.8403113e-38
1343.23 402.48599 -282.10599 1.8403113e-38
1357.35 425.85501 -282.79501 1.8403113e-38
1375.51 440.668 -286.21201 1.8403113e-38
1365.26 456.61801 -280.242 1.8403113e-38
1371.24 467.70099 -280.33801 1.8403113e-38
1114.5601 -29.566099 -279.875 1.8403113e-38
1128.77 -0.37982601 -279.62399 1.8403113e-38
1146.11 37.8074 -278.89001 1.8403113e-38
1157.14 61.063999 -278.59799 1.8403113e-38
1162.65 68.700302 -279.11301 1.8403113e-38
1169.6899 84.889702 -278.70099 1.8403113e-38
1176.97 92.891899 -279.73001 1.8403113e-38
1184.6899 109.49 -279.46799 1.8403113e-38
1368.9301 486.44 -276.474 1.8403113e-38
1371.0699 496.34601 -275.51901 1.8403113e-38
1146.41 438.65302 -212.36301 1.8403113e-38
1167.67 438.90701 -219.20599 1.8403113e-38
1121.23 453.26401 -201.783 1.8403113e-38
1134.34 450.75601 -206.44501 1.8403113e-38
1135.0601 475.849 -202.508 1.8403113e-38
1130.85 481.98099 -200.123 1.8403113e-38
1071.08 472.79001 -182.3 1.8403113e-38
1881.24 2074.21 -178.459 1.8403113e-38
1873.16 2087.8501 -173.578 1.8403113e-38
1018.81 457.043 -167.989 1.8403113e-38
971.47198 458.034 -152.49699 1.8403113e-38
980.90399 455.32599 -156.00101 1.8403113e-38
1810.23 2089.3101 -152.955 1.8403113e-38
1827.71 2086.3301 -159.11301 1.8403113e-38
944.32098 460.24301 -143.338 1.8403113e-38
1518.91 1575.23 -144.071 1.8403113e-38
909.59003 464.85999 -131.325 1.8403113e-38
934.90399 462.61499 -139.895 1.8403113e-38
1748.39 2089.8899 -132.834 1.8403113e-38
1764.47 2085.8899 -138.70599 1.8403113e-38
894.96399 464.23999 -126.692 1.8403113e-38
869.76703 465.63699 -118.301 1.8403113e-38
855.08801 478.76501 -111.366 1.8403113e-38
871.64502 473.311 -117.634 1.8403113e-38
1685.09 2086.6001 -112.884 1.8403113e-38
1701.71 2083.8101 -118.732 1.8403113e-38
850.85602 483.10101 -109.275 1.8403113e-38
835.112 491.89349 -102.7155 1.8403113e-38
228.25101 -622.75702 -91.477501 1.8403113e-38
1622.98 2082.46 -93.463402 1.8403113e-38
1644.54 2086.3 -99.805801 1.8403113e-38
773.69299 473.30099 -85.917999 1.8403113e-38
780.44702 483.67599 -86.380699 1.8403113e-38
771.914 495.4845 -81.654999 1.8403113e-38
1582.17 2080.3201 -80.604599 1.8403113e-38
192.72501 -564.91101 -70.359497 1.8403113e-38
756.5025 506.04999 -74.908501 1.8403113e-38
809.94897 626.763 -72.151001 1.8403113e-38
823.24103 644.15698 -73.564102 1.8403113e-38
821.35797 659.21301 -70.451897 1.8403113e-38
1571.29 2089.3101 -75.5849 1.8403113e-38
159.168 -593.94098 -64.318398 1.8403113e-38
733.31598 507.89999 -67.093201 1.8403113e-38
746.14801 522.90399 -68.754501 1.8403113e-38
733.4425 531.54297 -63.204453 1.8403113e-38
738.32397 552.51202 -61.299801 1.8403113e-38
757.78699 573.263 -64.153 1.8403113e-38
824.12097 669.09003 -69.704803 1.8403113e-38
821.10999 683.62201 -66.3144 1.8403113e-38
824.43701 694.21698 -65.630798 1.8403113e-38
822.60901 710.07098 -62.403801 1.8403113e-38
824.94397 720.15503 -61.483898 1.8403113e-38
149.388 -564.36499 -56.236099 1.8403113e-38
153.09801 -555.823 -56.017399 1.8403113e-38
148.448 -538.67798 -51.662102 1.8403113e-38
822.73798 736.104 -58.118599 1.8403113e-38
824.10101 745.64099 -56.9748 1.8403113e-38
818.96399 767.992 -51.5965 1.8403113e-38
823.00897 762.974 -53.740398 1.8403113e-38
829.99597 796.703 -50.396702 1.8403113e-38
887.92603 889.21503 -53.7784 1.8403113e-38
1448.39 1978.35 -54.232899 1.8403113e-38
122.564 -528.53601 -41.5952 1.8403113e-38
144.76999 -512.69598 -46.152851 1.8403113e-38
153.146 -508.35498 -48.143349 1.8403113e-38
827.966 803.763 -48.566101 1.8403113e-38
833.23602 828.14899 -46.219002 1.8403113e-38
827.14001 851.60901 -40.345901 1.8403113e-38
838.23102 871.92297 -40.5611 1.8403113e-38
1361.03 1884.64 -41.522999 1.8403113e-38
95.985001 -512.63 -30.3451 1.8403113e-38
112.656 -513.09003 -35.819698 1.8403113e-38
104.104 -508.74701 -32.328602 1.8403113e-38
1412.55 2000.14 -39.006802 1.8403113e-38
1450.88 2075.1299 -38.9548 1.8403113e-38
-24.101801 -713.591 -24.8622 1.8403113e-38
-29.474199 -695.591 -20.130899 1.8403113e-38
-18.0385 -696.716 -24.0207 1.8403113e-38
-17.345501 -671.76398 -20.0979 1.8403113e-38
73.772202 -511.94101 -23.037901 1.8403113e-38
84.153 -510.60901 -26.177898 1.8403113e-38
75.696899 -509.03101 -23.1775 1.8403113e-38
94.964493 -505.64349 -28.853399 1.8403113e-38
765.59698 829.09802 -24.1598 1.8403113e-38
1404.87 2084.55 -22.490801 1.8403113e-38
1422.16 2085.46 -27.9361 1.8403113e-38
-39.248199 -670.28003 -12.759 1.8403113e-38
64.524597 -503.22501 -18.594801 1.8403113e-38
60.179901 -498.72601 -16.4403 1.8403113e-38
47.9701 -487.922 -10.691 1.8403113e-38
50.990799 -488.83701 -11.8211 1.8403113e-38
742.94202 825.51703 -17.4193 1.8403113e-38
744.724 836.53101 -16.165501 1.8403113e-38
-43.617802 -658.013 -9.3052397 1.8403113e-38
-62.116402 -642.42798 -0.72491801 1.8403113e-38
-53.0144 -624.59998 -0.709095 1.8403113e-38
4.2079701 -518.24902 -1.56127 1.8403113e-38
11.3203 -511.263 -2.7031 1.8403113e-38
25.17815 -515.237 -7.8508701 1.8403113e-38
13.66 -509.58301 -3.18155 1.8403113e-38
25.05905 -503.57349 -5.8736897 1.8403113e-38
34.552299 -500.98199 -8.5168695 1.8403113e-38
36.014198 -496.38101 -8.2255602 1.8403113e-38
34.295399 -470.28 -3.3308301 1.8403113e-38
36.081699 -467.57199 -3.45911 1.8403113e-38
1291.22 1970.78 -4.5999999 1.8403113e-38
1285.34 1984.74 -0.374722 1.8403113e-38
-463.77802 -1364.04 9.3954601 1.8403113e-38
-85.580002 -664.10999 3.2688799 1.8403113e-38
-82.449997 -649.10901 4.7487402 1.8403113e-38
-72.531601 -636.50598 3.63185 1.8403113e-38
-76.0634 -623.96899 6.8591199 1.8403113e-38
-65.983299 -628.005 2.92431 1.8403113e-38
-56.332401 -622.03101 0.792418 1.8403113e-38
-24.3943 -558.71301 0.97479701 1.8403113e-38
-24.853001 -533.91498 5.2448902 1.8403113e-38
-11.0644 -529.013 1.59482 1.8403113e-38
-8.7498198 -526.48102 1.26625 1.8403113e-38
-21.102301 -519.20599 6.4751301 1.8403113e-38
-18.809999 -516.72699 6.1449099 1.8403113e-38
-2.9306052 -518.56549 0.69760609 1.8403113e-38
4.4468398 -506.09698 0.381208 1.8403113e-38
1313.0699 2076.1499 5.8390498 1.8403113e-38
-517.84601 -1409.35 19.371799 1.8403113e-38
-500.302 -1407.01 14.0795 1.8403113e-38
-491.13101 -1402.26 11.9003 1.8403113e-38
-92.649101 -612.22302 14.182 1.8403113e-38
-95.659103 -605.45898 16.280899 1.8403113e-38
1297.2 2076.0801 10.9662 1.8403113e-38
-553.05103 -1416.49 29.584 1.8403113e-38
-542.99799 -1410.21 27.373699 1.8403113e-38
-527.76001 -1415.8199 21.5061 1.8403113e-38
-317.49301 -959.26501 29.3055 1.8403113e-38
-112.731 -593.09753 23.8633 1.8403113e-38
-123.06 -585.20099 28.520599 1.8403113e-38
-119.783 -578.30798 28.605 1.8403113e-38
-102.999 -574.15399 23.8608 1.8403113e-38
1249.74 2078.79 26.784401 1.8403113e-38
1264.4301 2077.53 21.8162 1.8403113e-38
-576.12 -1410.0699 38.121101 1.8403113e-38
-568.591 -1411.51 35.444 1.8403113e-38
-292.38 -876.01202 35.0112 1.8403113e-38
-128.98 -580.15997 31.2752 1.8403113e-38
-145.28868 -572.23602 37.873066 1.8403113e-38
-131.343 -573.17499 33.201302 1.8403113e-38
-136.95 -567.04102 36.036499 1.8403113e-38
1212.95 2072.6899 37.683498 1.8403113e-38
-595.93701 -1394.8 47.0765 1.8403113e-38
-589.51001 -1399.1801 44.268002 1.8403113e-38
-258.017 -769.18799 41.6395 1.8403113e-38
-238.776 -700.92102 46.755901 1.8403113e-38
-220.342 -650.67902 49.137699 1.8403113e-38
-215.30299 -642.46698 48.870899 1.8403113e-38
-207.85699 -640.66498 46.759201 1.8403113e-38
-203.56599 -635.29303 46.263 1.8403113e-38
-194.86099 -625.51001 45.070202 1.8403113e-38
-189.40401 -612.21503 45.5131 1.8403113e-38
-179.81599 -613.40002 42.2113 1.8403113e-38
-181.608 -605.19299 44.155399 1.8403113e-38
-171.00999 -598.38 41.8564 1.8403113e-38
-168.041 -598.67297 40.846298 1.8403113e-38
-160.033 -586.44702 40.2854 1.8403113e-38
-156.177 -578.79999 40.307701 1.8403113e-38
1202 2079.5601 42.369301 1.8403113e-38
-626.271 -1407.12 54.850899 1.8403113e-38
-615.14899 -1399.53 52.510502 1.8403113e-38
-289.383 -758.16602 53.627899 1.8403113e-38
-244.058 -631.66998 59.976299 1.8403113e-38
1150.52 2072.3601 57.844002 1.8403113e-38
1169.62 2079.53 52.8503 1.8403113e-38
-645.77301 -1411.42 60.450802 1.8403113e-38
-671.44501 -1409.74 69.042999 1.8403113e-38
-652.94501 -1408.6 63.242802 1.8403113e-38
-247.181 -630.948 61.107498 1.8403113e-38
1122.41 2078.5 67.966202 1.8403113e-38
-697.58801 -1408.46 77.721802 1.8403113e-38
-678.20697 -1405.85 71.879204 1.8403113e-38
1107.47 2077.8899 72.702301 1.8403113e-38
-726.336 -1412.08 86.427696 1.8403113e-38
-708.00598 -1412.63 80.401299 1.8403113e-38
-733.06403 -1407.89 89.303101 1.8403113e-38
1071.1899 2068.53 82.894096 1.8403113e-38
-762.05902 -1410.74 98.218803 1.8403113e-38
-751.862 -1407.88 95.391098 1.8403113e-38
761.237 1525.77 93.045403 1.8403113e-38
-791.29199 -1412.95 107.317 1.8403113e-38
-779.64001 -1407.63 104.427 1.8403113e-38
629.711 1337.62 104.362 1.8403113e-38
635.91998 1332.0699 101.429 1.8403113e-38
606.53497 1330.46 110.677 1.8403113e-38
