# .PCD v0.7 - Point Cloud Data file format
VERSION 0.7
FIELDS x y z rgb
SIZE 4 4 4 4
TYPE F F F F
COUNT 1 1 1 1
WIDTH 346
HEIGHT 1
VIEWPOINT 0 0 0 1 0 0 0
POINTS 346
DATA ascii
550.83801 -1042.29 -291.03699 1.8403113e-38
562.83801 -1040.41 -294.371 1.8403113e-38
565.60303 -1025.21 -292.27701 1.8403113e-38
537.82202 -1042.45 -287.05801 1.8403113e-38
556.02399 -993.099 -283.104 1.8403113e-38
564.93701 -987.28003 -284.72299 1.8403113e-38
572.68103 -979.85999 -285.67099 1.8403113e-38
572.349 -961.82098 -282.07401 1.8403113e-38
579.28699 -953.60999 -282.621 1.8403113e-38
587.90198 -947.58099 -284.10699 1.8403113e-38
596.47601 -941.47198 -285.565 1.8403113e-38
599.62097 -928.69897 -284.05899 1.8403113e-38
602.60699 -915.95099 -282.509 1.8403113e-38
614.60797 -914.02899 -285.83401 1.8403113e-38
620.46198 -904.81897 -285.854 1.8403113e-38
623.10101 -892.03699 -284.19 1.8403113e-38
625.58099 -879.28497 -282.48401 1.8403113e-38
632.99902 -872.13702 -283.384 1.8403113e-38
634.57202 -858.71399 -281.26801 1.8403113e-38
647.66199 -857.65198 -285.095 1.8403113e-38
649.008 -844.216 -282.90701 1.8403113e-38
651.508 -832.17499 -281.34399 1.8403113e-38
663.87701 -830.14099 -284.76099 1.8403113e-38
671.56702 -823.33301 -285.811 1.8403113e-38
669.02002 -806.66498 -281.797 1.8403113e-38
682.00598 -804.97998 -285.47198 1.8403113e-38
683.97998 -792.88702 -283.737 1.8403113e-38
689.29602 -783.99402 -283.651 1.8403113e-38
695.93201 -776.323 -284.20999 1.8403113e-38
706.11798 -765.01404 -285.15698 1.8403113e-38
706.11499 -745.09802 -281.297 1.8403113e-38
717.5 -741.495 -284.10699 1.8403113e-38
720.867 -731.22198 -283.15399 1.8403113e-38
724.862 -721.53802 -282.509 1.8403113e-38
730.24103 -713.00299 -282.51199 1.8403113e-38
736.29199 -705.00201 -282.82599 1.8403113e-38
739.27197 -694.69098 -281.74701 1.8403113e-38
755.00403 -693.87402 -286.436 1.8403113e-38
751.00299 -678.49902 -282.224 1.8403113e-38
762.90198 -674.68103 -285.14999 1.8403113e-38
766.32599 -664.79797 -284.29001 1.8403113e-38
775.08899 -658.61603 -285.79199 1.8403113e-38
775.22803 -646.586 -283.504 1.8403113e-38
787.80798 -642.85199 -286.65701 1.8403113e-38
790.91498 -632.84802 -285.67599 1.8403113e-38
795.51599 -623.84497 -285.349 1.8403113e-38
799.237 -614.32001 -284.64999 1.8403113e-38
806.08801 -606.72302 -285.289 1.8403113e-38
814.505 -600.00897 -286.582 1.8403113e-38
820.44598 -591.78198 -286.81799 1.8403113e-38
821.41602 -580.72198 -284.974 1.8403113e-38
829.67102 -573.79303 -286.17499 1.8403113e-38
830.44897 -562.73602 -284.272 1.8403113e-38
846.065 -559.63397 -288.483 1.8403113e-38
846.68903 -548.513 -286.51999 1.8403113e-38
857.26501 -542.526 -288.61899 1.8403113e-38
857.70801 -531.39099 -286.59799 1.8403113e-38
863.96399 -523.15997 -286.92999 1.8403113e-38
871.862 -515.664 -287.91101 1.8403113e-38
874.58899 -505.70901 -286.823 1.8403113e-38
873.79199 -494.20901 -284.349 1.8403113e-38
885.802 -488.43301 -286.92999 1.8403113e-38
895.55103 -475.95349 -287.51599 1.8403113e-38
901.69 -461.914 -286.68701 1.8403113e-38
908.30902 -453.54401 -287.10501 1.8403113e-38
915.74902 -445.43201 -287.82599 1.8403113e-38
925.784 -438.21301 -289.51901 1.8403113e-38
922.5 -426.03101 -286.146 1.8403113e-38
932.41699 -418.64899 -287.772 1.8403113e-38
931.59497 -407.46201 -285.35101 1.8403113e-38
939.61102 -399.29999 -286.23901 1.8403113e-38
942.18903 -389.297 -285.095 1.8403113e-38
959.09003 -383.77301 -289.233 1.8403113e-38
962.44299 -373.89099 -288.35101 1.8403113e-38
972.05603 -365.83401 -289.75201 1.8403113e-38
968.90002 -354.05399 -286.49701 1.8403113e-38
974.73901 -344.84299 -286.51099 1.8403113e-38
978.68103 -335.08099 -285.83401 1.8403113e-38
987.12598 -326.43399 -286.76099 1.8403113e-38
996.435 -317.88901 -287.974 1.8403113e-38
992.797 -306.20801 -284.58899 1.8403113e-38
1000.12 -297.09399 -285.07999 1.8403113e-38
1011.08 -288.66599 -286.82501 1.8403113e-38
1013.65 -278.36801 -285.62 1.8403113e-38
1018.92 -268.59399 -285.35001 1.8403113e-38
1025.05 -258.92401 -285.36401 1.8403113e-38
1032.03 -249.334 -285.659 1.8403113e-38
1038.95 -239.645 -285.91299 1.8403113e-38
1046.74 -230.002 -286.44299 1.8403113e-38
1058.21 -220.797 -288.194 1.8403113e-38
1060.22 -210.112 -286.74301 1.8403113e-38
1060.25 -199.172 -284.634 1.8403113e-38
1064.91 -188.817 -284.06299 1.8403113e-38
1075.15 -179.026 -285.32199 1.8403113e-38
1076.8199 -168.21001 -283.73901 1.8403113e-38
1088.8101 -158.343 -285.521 1.8403113e-38
1091.25 -147.494 -284.172 1.8403113e-38
1098.35 -136.97099 -284.32001 1.8403113e-38
1107.27 -126.46 -285.03201 1.8403113e-38
1109.45 -115.437 -283.56799 1.8403113e-38
1118.2 -104.701 -284.185 1.8403113e-38
1126.88 -93.823601 -284.75101 1.8403113e-38
1127.84 -82.588501 -282.87 1.8403113e-38
1134.4301 -71.461998 -282.746 1.8403113e-38
1143.8 -60.260502 -283.46201 1.8403113e-38
1150.22 -48.899399 -283.23801 1.8403113e-38
1158.46 -37.420799 -283.55301 1.8403113e-38
1164.6899 -25.8372 -283.229 1.8403113e-38
1172.75 -14.1036 -283.43701 1.8403113e-38
1174.97 -2.4329 -281.85901 1.8403113e-38
1183.78 9.5593395 -282.25299 1.8403113e-38
1190.59 21.6014 -282.017 1.8403113e-38
1200.17 33.9342 -282.57901 1.8403113e-38
1208.6899 46.364899 -282.79599 1.8403113e-38
1219.03 59.094101 -283.513 1.8403113e-38
1225.42 71.6661 -283.04901 1.8403113e-38
1250.85 86.206299 -288.065 1.8403113e-38
1240.77 97.445297 -282.78299 1.8403113e-38
1265.96 112.571 -287.61301 1.8403113e-38
1252.8101 123.405 -281.46201 1.8403113e-38
1279.66 139.339 -286.64899 1.8403113e-38
1291.11 153.584 -287.41599 1.8403113e-38
1293.86 166.739 -285.71201 1.8403113e-38
1295.53 179.793 -283.70001 1.8403113e-38
1310.42 195.134 -285.314 1.8403113e-38
1323.26 210.40601 -286.31299 1.8403113e-38
1338.8199 226.44501 -287.99799 1.8403113e-38
1346.64 241.276 -287.53201 1.8403113e-38
1337.27 252.75 -282.423 1.8403113e-38
1359.03 270.76901 -285.63599 1.8403113e-38
1365.5 285.79901 -284.71701 1.8403113e-38
1364.28 299.19601 -281.746 1.8403113e-38
1383.67 317.604 -284.15399 1.8403113e-38
1393.47 334.00299 -283.99701 1.8403113e-38
1412.51 353.03799 -286.17401 1.8403113e-38
1410.74 366.85501 -282.95001 1.8403113e-38
1419.13 383.53299 -282.306 1.8403113e-38
518.14301 -1032.1 -278.98901 1.8403113e-38
1405.89 394.173 -276.16501 1.8403113e-38
1400.96 407.10001 -272.142 1.8403113e-38
1408.95 423.966 -271.33401 1.8403113e-38
482.38501 -995.815 -260.94199 1.8403113e-38
1398.21 435.10501 -265.866 1.8403113e-38
1399.42 450.01001 -263.35199 1.8403113e-38
1393.11 462.47299 -258.992 1.8403113e-38
1392.22 476.76199 -255.95 1.8403113e-38
451.67099 -984.73499 -249.332 1.8403113e-38
1176.13 414.55701 -201.423 1.8403113e-38
1144.37 415.58099 -191.439 1.8403113e-38
1131.86 423.27301 -186.09399 1.8403113e-38
1134.8101 436.73801 -184.394 1.8403113e-38
1131.26 447.76401 -181.164 1.8403113e-38
1133.05 460.95499 -179.161 1.8403113e-38
1124.78 470.078 -174.84399 1.8403113e-38
319.54401 -754.15002 -163.944 1.8403113e-38
1043.45 448.064 -154.05 1.8403113e-38
1005.63 443.41299 -143.298 1.8403113e-38
263.021 -689.22198 -133.94901 1.8403113e-38
976.89301 442.11301 -134.69701 1.8403113e-38
932.12799 443.88501 -120.561 1.8403113e-38
960.73401 446.02701 -128.96001 1.8403113e-38
1979.1899 2062.8301 -129.491 1.8403113e-38
1962.89 2081.29 -120.891 1.8403113e-38
914.24799 446.33401 -114.577 1.8403113e-38
890.20898 445.48999 -107.335 1.8403113e-38
880.31799 451.25299 -103.17 1.8403113e-38
1922.1899 2074.47 -109.675 1.8403113e-38
874.77698 459.09601 -99.943497 1.8403113e-38
852.20599 468.58899 -91.149696 1.8403113e-38
864.81 464.60599 -95.804703 1.8403113e-38
1892.72 2078.6699 -99.779297 1.8403113e-38
849.125 477.52899 -88.468002 1.8403113e-38
838.20001 482.16501 -84.203903 1.8403113e-38
1857.85 2076.6599 -89.427002 1.8403113e-38
-395.49301 -1408.26 -70.372299 1.8403113e-38
155.83701 -529.92999 -70.059998 1.8403113e-38
161.515 -529.64502 -71.754501 1.8403113e-38
827.26099 486.64001 -79.966202 1.8403113e-38
820.58301 493.40799 -76.597603 1.8403113e-38
826.625 507.55701 -75.717598 1.8403113e-38
822.33502 515.77899 -72.802498 1.8403113e-38
1823.14 2074.1899 -79.2117 1.8403113e-38
145.72501 -542.98199 -69.473602 1.8403113e-38
127.794 -530.38702 -61.5084 1.8403113e-38
144.548 -530.30402 -66.654404 1.8403113e-38
131.129 -526.20502 -61.725498 1.8403113e-38
149.714 -529.31897 -68.055199 1.8403113e-38
816.28497 522.93298 -69.552498 1.8403113e-38
818.57501 535.21301 -67.8787 1.8403113e-38
822.40002 548.61902 -66.459602 1.8403113e-38
822.74597 559.98798 -64.363503 1.8403113e-38
824.625 572.47998 -62.521999 1.8403113e-38
824.71802 583.94202 -60.330101 1.8403113e-38
1788.6 2071.26 -69.134499 1.8403113e-38
96.170403 -531.48499 -51.977501 1.8403113e-38
100.79 -530.14203 -53.140701 1.8403113e-38
107.101 -526.74353 -54.426651 1.8403113e-38
116.505 -524.23596 -56.838348 1.8403113e-38
826.32599 596.55298 -58.382 1.8403113e-38
826.164 608.10199 -56.0942 1.8403113e-38
823.65955 624.04895 -52.232651 1.8403113e-38
843.34399 656.37903 -52.033798 1.8403113e-38
1760.1801 2074.6001 -59.730701 1.8403113e-38
-497.009 -1429.97 -43.2995 1.8403113e-38
-483.64499 -1425.88 -46.624401 1.8403113e-38
-468.168 -1412.99 -48.895699 1.8403113e-38
-449.142 -1384.5 -49.2379 1.8403113e-38
61.446701 -533.34003 -41.6381 1.8403113e-38
83.314545 -531.54852 -48.028748 1.8403113e-38
90.394501 -530.15198 -49.939701 1.8403113e-38
66.541946 -527.34351 -42.046249 1.8403113e-38
72.254303 -523.08698 -42.981499 1.8403113e-38
824.25897 654.63098 -46.492001 1.8403113e-38
825.84003 668.13098 -44.3633 1.8403113e-38
827.26398 681.70001 -42.173199 1.8403113e-38
1698.3199 2074.1599 -40.757401 1.8403113e-38
1725.91 2070.8101 -49.906101 1.8403113e-38
-533.89899 -1429.05 -31.754499 1.8403113e-38
-519.83801 -1423.42 -34.995899 1.8403113e-38
-508.577 -1427.22 -39.2033 1.8403113e-38
41.0536 -530.53699 -34.811699 1.8403113e-38
26.7209 -529.935 -30.278999 1.8403113e-38
34.461601 -524.89301 -31.687099 1.8403113e-38
43.035999 -522.45801 -33.857101 1.8403113e-38
45.8638 -517.10498 -33.691399 1.8403113e-38
50.9305 -518.06 -35.437401 1.8403113e-38
826.96698 694.11298 -39.676399 1.8403113e-38
827.30701 707.18103 -37.249001 1.8403113e-38
822.09003 715.92798 -33.946999 1.8403113e-38
822.93103 729.67798 -31.5418 1.8403113e-38
1045.59 1068.52 -34.493301 1.8403113e-38
1663.7 2068.77 -31.1355 1.8403113e-38
-545.14697 -1425.02 -27.5082 1.8403113e-38
-554.54401 -1415.1899 -22.7089 1.8403113e-38
-1.84601 -525.547 -20.6269 1.8403113e-38
14.528151 -527.698 -26.088749 1.8403113e-38
25.145851 -524.85254 -28.809 1.8403113e-38
4.1346302 -514.45697 -20.320999 1.8403113e-38
822.84698 742.84998 -28.9639 1.8403113e-38
830.94 763.151 -27.524099 1.8403113e-38
830.49402 776.48102 -24.803699 1.8403113e-38
824.664 785.25299 -21.3078 1.8403113e-38
866.95898 837.08698 -24.2962 1.8403113e-38
1635.66 2070.6201 -22.138399 1.8403113e-38
-584.92297 -1431.22 -16.4555 1.8403113e-38
-596.45502 -1427.6899 -12.2175 1.8403113e-38
-567.18903 -1415.71 -18.9135 1.8403113e-38
-293.70599 -940.76599 -11.1529 1.8403113e-38
-73.525703 -585.93903 -10.2431 1.8403113e-38
-24.357901 -545.12799 -17.4848 1.8403113e-38
-13.8534 -531.20398 -18.023399 1.8403113e-38
-23.7672 -525.93903 -13.9488 1.8403113e-38
-19.648701 -524.80701 -14.9985 1.8403113e-38
-8.0597601 -527.46851 -19.084801 1.8403113e-38
0.33471501 -516.73401 -19.591299 1.8403113e-38
846.62799 833.44397 -18.7379 1.8403113e-38
1605.8101 2069.8 -13.0979 1.8403113e-38
-636.39203 -1431.41 -0.63375199 1.8403113e-38
-610.27502 -1430.63 -8.52911 1.8403113e-38
-622.12799 -1427.8 -4.3295598 1.8403113e-38
-119.664 -610.47101 -0.78052503 1.8403113e-38
-112.5195 -607.52551 -2.4112549 1.8403113e-38
-105.426 -604.49902 -4.0103002 1.8403113e-38
-82.4683 -591.14899 -8.4973001 1.8403113e-38
-101.377 -585.46002 -1.56893 1.8403113e-38
-92.038399 -587.41803 -4.8255801 1.8403113e-38
-87.551498 -584.914 -5.72299 1.8403113e-38
-77.900101 -589.53601 -9.5922899 1.8403113e-38
-97.058502 -579.125 -1.67212 1.8403113e-38
-70.633102 -567.73798 -7.6076398 1.8403113e-38
-66.4907 -564.09399 -8.1780901 1.8403113e-38
-63.1852 -553.64001 -7.17102 1.8403113e-38
-55.9296 -541.39697 -7.0342498 1.8403113e-38
-61.131001 -534.474 -4.09024 1.8403113e-38
-52.924198 -531.87097 -6.1146402 1.8403113e-38
-52.101898 -508.87 -1.91142 1.8403113e-38
-44.815063 -503.24902 -3.0674169 1.8403113e-38
-35.939201 -507.09601 -6.5474901 1.8403113e-38
774.401 795.271 -3.88027 1.8403113e-38
793.52197 799.09497 -9.0305996 1.8403113e-38
833.31702 896.32098 -2.45386 1.8403113e-38
1578.5699 2071.72 -4.3331699 1.8403113e-38
-658.276 -1420.53 8.2181501 1.8403113e-38
-641.85797 -1411.5699 4.8947802 1.8403113e-38
-124.41 -600.92401 2.5316899 1.8403113e-38
-129.04201 -595.255 5.0571198 1.8403113e-38
-135.78699 -585.67749 8.9909306 1.8403113e-38
780.10199 829.15503 0.92846698 1.8403113e-38
1537.79 2056.0601 5.1971998 1.8403113e-38
-675.23999 -1430.22 11.5658 1.8403113e-38
-701.62402 -1429.71 19.794201 1.8403113e-38
-687.09399 -1426.8 15.8814 1.8403113e-38
-282.026 -811.21899 10.3488 1.8403113e-38
-244.246 -713.76099 17.5916 1.8403113e-38
-234.868 -693.04199 18.7162 1.8403113e-38
-227.30701 -681.01898 18.7162 1.8403113e-38
-218.87 -662.078 19.786699 1.8403113e-38
-212.36501 -653.81897 19.3827 1.8403113e-38
-196.617 -652.21997 14.8404 1.8403113e-38
-203.3405 -644.73901 18.3615 1.8403113e-38
-184.494 -635.20801 14.4015 1.8403113e-38
-179.71201 -637.42603 12.4982 1.8403113e-38
-188.673 -628.03998 17.077801 1.8403113e-38
-173.215 -620.93103 13.6924 1.8403113e-38
-168.59599 -624.03998 11.6668 1.8403113e-38
-157.425 -602.59802 12.3793 1.8403113e-38
-161.84599 -598.59601 14.517 1.8403113e-38
-152.05499 -590.82703 13.0056 1.8403113e-38
-147.675 -595.729 10.7064 1.8403113e-38
-142.713 -587.80798 10.7122 1.8403113e-38
-726.09998 -1424.1 28.4231 1.8403113e-38
-715.04999 -1429.72 23.930201 1.8403113e-38
-288.005 -751.69897 23.723101 1.8403113e-38
-263.22601 -694.745 27.1238 1.8403113e-38
1389.5601 1900.88 20.802299 1.8403113e-38
1402.15 1950.77 26.5877 1.8403113e-38
-757.17603 -1432.54 36.362202 1.8403113e-38
-741.177 -1427.49 32.410801 1.8403113e-38
-260.51999 -657.94702 33.419998 1.8403113e-38
1455.4 2056.1599 30.601801 1.8403113e-38
1435.25 2065.1899 38.5588 1.8403113e-38
-798.40601 -1431.35 49.296902 1.8403113e-38
-783.914 -1430.39 45.0182 1.8403113e-38
-769.052 -1428.37 40.830502 1.8403113e-38
1403.91 2058.6299 46.944599 1.8403113e-38
-828 -1433.7 57.9594 1.8403113e-38
-812.50403 -1431.26 53.657398 1.8403113e-38
1296.8 1944.98 57.927502 1.8403113e-38
-854.073 -1428.35 67.030403 1.8403113e-38
-839.88599 -1428.87 62.557301 1.8403113e-38
1288.51 1968.13 64.965698 1.8403113e-38
-887.36902 -1435.6 75.8843 1.8403113e-38
-870.19397 -1431.1899 71.446999 1.8403113e-38
1301.85 2059.95 78.6455 1.8403113e-38
1322.4301 2053.0601 70.971802 1.8403113e-38
-912.49799 -1453.75 80.1092 1.8403113e-38
-916.09497 -1433.41 85.159599 1.8403113e-38
1280.14 2064.95 86.303596 1.8403113e-38
-923.43701 -1419.99 90.020897 1.8403113e-38
-923.44501 -1394.51 94.961304 1.8403113e-38
-925.67401 -1373.38 99.741699 1.8403113e-38
1253.52 2062.1799 93.969398 1.8403113e-38
-923.39899 -1345.49 104.445 1.8403113e-38
-924.974 -1324.48 109 1.8403113e-38
1205.46 2063.3301 109 1.8403113e-38
1231.88 2066.6799 101.508 1.8403113e-38
