# .PCD v0.7 - Point Cloud Data file format
VERSION 0.7
FIELDS x y z rgb
SIZE 4 4 4 4
TYPE F F F F
COUNT 1 1 1 1
WIDTH 306
HEIGHT 1
VIEWPOINT 0 0 0 1 0 0 0
POINTS 306
DATA ascii
-785.953 127.52 -440.73599 1.8403113e-38
-670.81403 274.43701 -440.017 1.8403113e-38
-365.45499 673.49103 -440.19501 1.8403113e-38
-328.32401 721.724 -440.15201 1.8403113e-38
-945.41699 -124.794 -430.91599 1.8403113e-38
-942.56897 -102.956 -434.92999 1.8403113e-38
-945.62903 -98.6418 -436.76901 1.8403113e-38
-928.50403 -73.397949 -437.414 1.8403113e-38
-906.67798 -46.168301 -437.14001 1.8403113e-38
-792.56445 102.13 -437.02301 1.8403113e-38
-784.526 123.26 -439.38101 1.8403113e-38
-765.81799 149.605 -439.811 1.8403113e-38
-758.73602 144.933 -436.73099 1.8403113e-38
-738.37 166.298 -435.57999 1.8403113e-38
-744.41998 170.953 -438.35901 1.8403113e-38
-717.70898 187.01401 -434.20001 1.8403113e-38
-725.57703 191.94701 -437.56601 1.8403113e-38
-710.00897 208.81 -436.80399 1.8403113e-38
-709.28003 212.73399 -437.46201 1.8403113e-38
-701.95697 230.422 -439.26401 1.8403113e-38
-693.62903 233.174 -437.46799 1.8403113e-38
-672.90198 248.375 -434.84799 1.8403113e-38
-679.565 253.47301 -437.90201 1.8403113e-38
-662.37402 268.87799 -436.34799 1.8403113e-38
-644.08197 287.58301 -435.207 1.8403113e-38
-653.35699 293.45001 -439.185 1.8403113e-38
-635.74402 308.03299 -437.328 1.8403113e-38
-634.72699 311.741 -437.85501 1.8403113e-38
-616.01703 325.60901 -435.522 1.8403113e-38
-620.47601 330.62299 -437.92099 1.8403113e-38
-602.85852 346.33899 -436.31299 1.8403113e-38
-591.19501 367.22501 -437.569 1.8403113e-38
-588.72699 362.61301 -435.83499 1.8403113e-38
-576.34448 383.03748 -436.78198 1.8403113e-38
-564.91998 399.63 -437.15701 1.8403113e-38
-563.638 403.133 -437.56201 1.8403113e-38
-549.48199 416.638 -436.46399 1.8403113e-38
-553.50897 421.952 -438.80399 1.8403113e-38
-540.04102 435.50101 -437.91501 1.8403113e-38
-534.22101 437.30301 -436.633 1.8403113e-38
-523.85754 453.6665 -437.26349 1.8403113e-38
-508.89801 468.05899 -436.13 1.8403113e-38
-513.53003 473.901 -438.76199 1.8403113e-38
-495.73001 486.87451 -436.4935 1.8403113e-38
-490.72198 505.20499 -439.10699 1.8403113e-38
-483.983 506.15799 -437.371 1.8403113e-38
-468.823 517.71802 -435.55301 1.8403113e-38
-476.55801 525.39203 -439.487 1.8403113e-38
-459.51599 535.88397 -436.888 1.8403113e-38
-463.73801 542.02197 -439.46701 1.8403113e-38
-451.57999 554.76599 -438.77701 1.8403113e-38
-448.17801 557.06897 -438.30499 1.8403113e-38
-433.38101 568.177 -436.491 1.8403113e-38
-438.21899 574.90399 -439.37799 1.8403113e-38
-425.70499 587.14899 -438.47501 1.8403113e-38
-424.69601 590.71301 -438.97299 1.8403113e-38
-400.67801 596.00201 -433.207 1.8403113e-38
-409.33701 605.27502 -437.76199 1.8403113e-38
-365.349 648.95898 -434.73099 1.8403113e-38
-363.66599 667.87701 -438.435 1.8403113e-38
-354.186 685.96198 -439.702 1.8403113e-38
-349.035 686.64001 -438.36401 1.8403113e-38
-338.367 699.41699 -438.11301 1.8403113e-38
-336.965 702.82898 -438.46301 1.8403113e-38
-327.57199 716.586 -438.797 1.8403113e-38
-315.742 733.013 -439.01801 1.8403113e-38
-306.94501 730.44 -435.90701 1.8403113e-38
-302.91501 748.65198 -438.776 1.8403113e-38
-299.905 750.78601 -438.38 1.8403113e-38
-288.3125 765.11804 -438.20502 1.8403113e-38
-275.112 778.01898 -437.25 1.8403113e-38
-274.12201 781.948 -437.83401 1.8403113e-38
-264.979 796.20203 -438.35001 1.8403113e-38
-259.13901 795.59698 -436.52899 1.8403113e-38
-255.158 814.94397 -439.664 1.8403113e-38
-246.64301 811.60699 -436.465 1.8403113e-38
-241.65401 830.25 -439.15302 1.8403113e-38
-237.151 830.797 -437.974 1.8403113e-38
-225.311 845.237 -437.75201 1.8403113e-38
-208.724 859.91101 -436.211 1.8403113e-38
-215.77699 862.302 -438.77701 1.8403113e-38
-200.845 876.28003 -437.56 1.8403113e-38
-200.043 880.85199 -438.341 1.8403113e-38
-187.3815 894.80396 -437.77399 1.8403113e-38
6.5041752 1142.7051 -436.67401 1.8403113e-38
23.033199 1159.485 -435.616 1.8403113e-38
41.710899 1176.92 -434.082 1.8403113e-38
34.760201 1183.03 -437.444 1.8403113e-38
53.6054 1201.1951 -436.02249 1.8403113e-38
72.563797 1219.96 -434.70401 1.8403113e-38
66.116997 1225.41 -437.77301 1.8403113e-38
85.814949 1243.575 -436.1055 1.8403113e-38
99.348198 1268 -437.60599 1.8403113e-38
106.296 1260.54 -433.94699 1.8403113e-38
122.008 1286.4399 -435.14401 1.8403113e-38
115.445 1293.1 -438.51501 1.8403113e-38
137.341 1308.7151 -435.64951 1.8403113e-38
153.786 1329.01 -435.39401 1.8403113e-38
156.957 1333.1899 -435.40399 1.8403113e-38
177.284 1349.3101 -433.103 1.8403113e-38
170.974 1356.29 -436.47198 1.8403113e-38
195.89799 1373.53 -433.09 1.8403113e-38
188.47701 1385.27 -437.83401 1.8403113e-38
209.26601 1403.78 -435.92801 1.8403113e-38
212.8 1407.84 -435.80801 1.8403113e-38
233.002 1410.6899 -430.603 1.8403113e-38
810.22198 2164.04 -430.72101 1.8403113e-38
-945.16199 -129.395 -429.82401 1.8403113e-38
-370.091 600.70001 -425.41299 1.8403113e-38
-366.63699 602.63501 -424.84399 1.8403113e-38
-349.37 634.021 -426.80701 1.8403113e-38
-118.544 908.50702 -420.92599 1.8403113e-38
-114.047 930.09198 -424.40701 1.8403113e-38
239.02499 1403.39 -427.246 1.8403113e-38
258.901 1406.78 -422.25699 1.8403113e-38
263.09 1407.88 -421.29001 1.8403113e-38
814.495 2147.9399 -425.92099 1.8403113e-38
-950.18799 -209.173 -413.60699 1.8403113e-38
-948.77002 -204.246 -414.289 1.8403113e-38
-948.01599 -182.364 -418.91699 1.8403113e-38
-947.47198 -177.618 -419.811 1.8403113e-38
-334.81451 603.36151 -415.81348 1.8403113e-38
-131.939 861.90997 -414.47501 1.8403113e-38
-108.181 889.00403 -413.61301 1.8403113e-38
-97.952003 913.91498 -416.17599 1.8403113e-38
284.56201 1414.275 -416.505 1.8403113e-38
838.73401 2110.3101 -410.586 1.8403113e-38
-953.13397 -233.952 -408.97052 1.8403113e-38
-696.72302 78.126099 -404.02399 1.8403113e-38
-102.258 849.97198 -403.258 1.8403113e-38
-100.856 853.58899 -403.65399 1.8403113e-38
-73.673103 907.51099 -407.745 1.8403113e-38
-67.701302 904.909 -405.444 1.8403113e-38
-52.3241 910.38202 -402.21399 1.8403113e-38
307.521 1411.75 -409.314 1.8403113e-38
312.01999 1410.79 -407.80099 1.8403113e-38
333.8605 1414.01 -402.20599 1.8403113e-38
843.76202 2101.9199 -407.276 1.8403113e-38
922.31897 2175.1699 -400.80899 1.8403113e-38
-954.14899 -317.22601 -390.82101 1.8403113e-38
-947.013 -283.80801 -396.16101 1.8403113e-38
-919.15503 -253.651 -394.79352 1.8403113e-38
-842.68402 -141.58299 -397.52499 1.8403113e-38
-841.07501 -137.049 -398.064 1.8403113e-38
-699.57098 12.658 -390.34799 1.8403113e-38
-671.14203 73.680901 -395.651 1.8403113e-38
-46.431499 907.65198 -399.90799 1.8403113e-38
-22.8106 902.99451 -392.0535 1.8403113e-38
54.0989 994.38702 -390.07999 1.8403113e-38
358.05099 1415.355 -395.517 1.8403113e-38
867.04999 2065.8301 -392.55801 1.8403113e-38
923.26398 2145.23 -393.90399 1.8403113e-38
959.64301 2175.9099 -390.19299 1.8403113e-38
-952.01501 -339.07199 -385.367 1.8403113e-38
-945.49701 -310.33899 -389.84799 1.8403113e-38
-923.479 -283.21201 -389.495 1.8403113e-38
-666.98102 9.8052797 -380.30301 1.8403113e-38
-673.86603 30.937401 -386.97101 1.8403113e-38
-652.53699 34.921799 -381.69299 1.8403113e-38
-662.95996 54.14035 -388.96002 1.8403113e-38
-1.81745 907.65601 -387.022 1.8403113e-38
17.204 905.51202 -381.05301 1.8403113e-38
20.8797 905.64697 -380.022 1.8403113e-38
-8.0314198 911.45001 -389.65701 1.8403113e-38
32.058498 922.88 -380.60901 1.8403113e-38
58.766602 992.64899 -388.34601 1.8403113e-38
382.32147 1414.8101 -388.38647 1.8403113e-38
405.7785 1421.5601 -383.1055 1.8403113e-38
870.31702 2048.6201 -387.802 1.8403113e-38
966.23499 2175.9099 -388.289 1.8403113e-38
-956.35449 -397.70551 -373.63501 1.8403113e-38
-957.01099 -372.67801 -379.367 1.8403113e-38
-908.63702 -332.46399 -374.30099 1.8403113e-38
32.128101 916.21198 -379.11301 1.8403113e-38
50.455299 927.508 -376.32101 1.8403113e-38
43.584301 933.32202 -379.59299 1.8403113e-38
64.873001 939.34198 -374.77701 1.8403113e-38
60.749802 940.23401 -376.16599 1.8403113e-38
432.242 1417.52 -374.56799 1.8403113e-38
427.479 1424.71 -377.535 1.8403113e-38
453.42099 1428.01 -370.7735 1.8403113e-38
1002.13 2169.1001 -376.41199 1.8403113e-38
995.76202 2170.1799 -378.491 1.8403113e-38
-957.52301 -456.60001 -360.92899 1.8403113e-38
-950.40698 -449.21899 -360.508 1.8403113e-38
-950.97852 -423.875 -366.28601 1.8403113e-38
-902.48199 -352.61301 -368.061 1.8403113e-38
475.479 1422.61 -363.20599 1.8403113e-38
479.39099 1430.8199 -363.89401 1.8403113e-38
730.79602 1746.27 -361.14001 1.8403113e-38
1036 2153.96 -363.27499 1.8403113e-38
1031.97 2164.77 -366.83499 1.8403113e-38
499.047 1432.61 -358.61301 1.8403113e-38
503.26801 1432.95 -357.47101 1.8403113e-38
525.04401 1433.5601 -351.31451 1.8403113e-38
1069.4301 2138.22 -350.13599 1.8403113e-38
1066.59 2152.95 -354.21899 1.8403113e-38
546.78198 1432.83 -344.875 1.8403113e-38
551.11401 1440.85 -345.39899 1.8403113e-38
570.87097 1442.5699 -340.07401 1.8403113e-38
1100.1 2137.6599 -341.15201 1.8403113e-38
575.10999 1442.7 -338.87799 1.8403113e-38
596.98303 1443.605 -332.76199 1.8403113e-38
1105.03 2131.47 -338.35699 1.8403113e-38
1146.46 2167.48 -334.36499 1.8403113e-38
1152.23 2164.02 -331.93201 1.8403113e-38
-964.27698 -635.146 -323.33801 1.8403113e-38
-954.39398 -625.29303 -322.66501 1.8403113e-38
619.289 1451.02 -327.95901 1.8403113e-38
623.54401 1450.99 -326.724 1.8403113e-38
643.42499 1451.66 -321.13101 1.8403113e-38
-962.89301 -659.716 -317.49701 1.8403113e-38
647.59497 1450.58 -319.68799 1.8403113e-38
668.22998 1458.72 -315.53 1.8403113e-38
672.203 1455.61 -313.694 1.8403113e-38
694.948 1479.99 -312.52301 1.8403113e-38
-711.94495 -395.17401 -303.60101 1.8403113e-38
-690.62701 -413.23401 -293.444 1.8403113e-38
-467.64401 -429.05399 -225.534 1.8403113e-38
-884.34399 -1054.97 -207.274 1.8403113e-38
908.521 1259.79 -202.06799 1.8403113e-38
909.29199 1274.97 -205.207 1.8403113e-38
-857.35303 -1071.27 -195.868 1.8403113e-38
-858.15601 -1065.25 -197.43401 1.8403113e-38
-678.78003 -889.19299 -184.61301 1.8403113e-38
-311.12201 -422.89001 -181.69 1.8403113e-38
-254.524 -340.88101 -183.505 1.8403113e-38
-249.06799 -341.07199 -181.886 1.8403113e-38
-286.547 -412.34601 -176.927 1.8403113e-38
-265.896 -380.32101 -178.05499 1.8403113e-38
-242.116 -370.517 -173.35699 1.8403113e-38
-207.274 -333.08899 -171.58299 1.8403113e-38
-440.853 -654.84198 -167.79201 1.8403113e-38
-393.841 -625.00201 -160.821 1.8403113e-38
-202.70799 -378.60199 -160.18401 1.8403113e-38
-196.603 -330.32599 -169.112 1.8403113e-38
-177.054 -382.50101 -151.911 1.8403113e-38
-188.717 -373.32501 -157.312 1.8403113e-38
-176.526 -379.33499 -152.46001 1.8403113e-38
819.73499 932.47498 -155.224 1.8403113e-38
-263.90701 -547.25403 -140.50999 1.8403113e-38
-168.173 -423.367 -140.295 1.8403113e-38
815.31403 864.46899 -141.44 1.8403113e-38
807.10602 885.52899 -148.47501 1.8403113e-38
820.34497 886.80499 -144.933 1.8403113e-38
836.836 888.93402 -140.642 1.8403113e-38
-160.715 -435.20401 -135.52 1.8403113e-38
-123.278 -395.93799 -133.40199 1.8403113e-38
-105.926 -351.37799 -138.259 1.8403113e-38
832.47601 869.46002 -137.588 1.8403113e-38
844.836 861.10797 -132.16901 1.8403113e-38
868.70502 888.51099 -131.343 1.8403113e-38
854.87799 894.45001 -136.65199 1.8403113e-38
1826.46 2159.5901 -136.21001 1.8403113e-38
1824.4301 2170.0901 -139.121 1.8403113e-38
-132.625 -452.07901 -123.669 1.8403113e-38
-68.603203 -344.54401 -128.993 1.8403113e-38
-17.2255 -308.67899 -122.096 1.8403113e-38
-20.047899 -299.89001 -124.857 1.8403113e-38
859.59601 859.008 -127.44 1.8403113e-38
880.974 872.20599 -124.188 1.8403113e-38
887.04199 893.33698 -127.116 1.8403113e-38
863.16302 795.698 -112.389 1.8403113e-38
-54.312901 -437.431 -104.294 1.8403113e-38
974.31702 890.80298 -101.346 1.8403113e-38
985.70099 918.573 -104.208 1.8403113e-38
2.9527099 -392.58801 -97.684502 1.8403113e-38
20.37015 -391.2225 -92.956001 1.8403113e-38
801.211 634.80499 -94.650398 1.8403113e-38
813.03497 655.75403 -95.874901 1.8403113e-38
1001.11 913.00897 -98.524696 1.8403113e-38
38.876499 -390.87201 -87.688301 1.8403113e-38
47.641899 -394.93399 -84.256897 1.8403113e-38
39.1334 -388.086 -88.231003 1.8403113e-38
56.973202 -388.92801 -82.891899 1.8403113e-38
80.801003 -407.26901 -71.947502 1.8403113e-38
64.1334 -395.42599 -79.384598 1.8403113e-38
79.246201 -394.11301 -75.310303 1.8403113e-38
81.928802 -394.04401 -74.550797 1.8403113e-38
853.72803 619.388 -76.067398 1.8403113e-38
857.38501 621.94598 -75.577599 1.8403113e-38
880.62 639.86102 -72.8339 1.8403113e-38
903.164 682.198 -75.6987 1.8403113e-38
135.34599 -354.47 -67.886299 1.8403113e-38
152.22501 -350.14001 -63.969799 1.8403113e-38
163.45 -351.22699 -60.487099 1.8403113e-38
152.472 -347.58301 -64.464699 1.8403113e-38
164.347 -347.948 -60.9538 1.8403113e-38
882.20697 584.013 -60.007099 1.8403113e-38
955.008 718.87201 -68.846298 1.8403113e-38
136.5325 -423.66699 -52.218597 1.8403113e-38
147.224 -395.92401 -55.274696 1.8403113e-38
165.30701 -362.48199 -57.457901 1.8403113e-38
172.14 -352.479 -57.6996 1.8403113e-38
906.47498 578.56897 -51.792099 1.8403113e-38
897.71753 586.38953 -56.053551 1.8403113e-38
906.07501 581.28699 -52.5093 1.8403113e-38
894.23499 598.85699 -59.820499 1.8403113e-38
139.073 -451.54999 -45.3097 1.8403113e-38
157.73599 -430.603 -44.558201 1.8403113e-38
144.205 -428.74799 -48.8773 1.8403113e-38
153.114 -420.52899 -48.124298 1.8403113e-38
911.63 567.51398 -47.854698 1.8403113e-38
924.51398 568.5415 -44.360901 1.8403113e-38
935.92902 564.164 -40.094299 1.8403113e-38
911.88098 571.039 -48.563 1.8403113e-38
