# .PCD v0.7 - Point Cloud Data file format
VERSION 0.7
FIELDS x y z rgb
SIZE 4 4 4 4
TYPE F F F F
COUNT 1 1 1 1
WIDTH 339
HEIGHT 1
VIEWPOINT 0 0 0 1 0 0 0
POINTS 339
DATA ascii
550.41602 -1008.29 -291.746 1.8403113e-38
885.50354 -504.41101 -290.68848 1.8403113e-38
918.112 -456.436 -290.80099 1.8403113e-38
948.82703 -411.70801 -291 1.8403113e-38
952.33197 -402.08401 -290.10501 1.8403113e-38
966.50098 -384.47101 -290.81 1.8403113e-38
989.52301 -346.94299 -290.147 1.8403113e-38
1002.91 -328.33099 -290.41199 1.8403113e-38
1300.53 109.564 -291.431 1.8403113e-38
1350.41 181.259 -291.944 1.8403113e-38
529.72803 -997.91803 -283.39099 1.8403113e-38
549.81702 -989.57202 -287.76599 1.8403113e-38
554.42401 -977.47601 -286.702 1.8403113e-38
558.47601 -965.71002 -285.53799 1.8403113e-38
566.24103 -958.12 -286.34299 1.8403113e-38
571.20898 -947.82703 -285.754 1.8403113e-38
582.34698 -944.57202 -288.45801 1.8403113e-38
585.35699 -932.00299 -286.81601 1.8403113e-38
592.21002 -923.48199 -287.15601 1.8403113e-38
597.38 -913.815 -286.75601 1.8403113e-38
606.51599 -908.078 -288.35101 1.8403113e-38
609.64697 -896.21301 -286.888 1.8403113e-38
614.26398 -885.42499 -286.09299 1.8403113e-38
620.29303 -877.07599 -286.22 1.8403113e-38
624.04303 -865.57001 -285.017 1.8403113e-38
629.88702 -857.17102 -285.077 1.8403113e-38
636.659 -849.05701 -285.47601 1.8403113e-38
643.00598 -841.25403 -285.80899 1.8403113e-38
650.96301 -834.37402 -286.81699 1.8403113e-38
662.55103 -831.75 -289.784 1.8403113e-38
663.67401 -818.14502 -287.362 1.8403113e-38
664.97101 -805.61298 -285.20999 1.8403113e-38
674.91797 -793.85651 -285.82849 1.8403113e-38
679.81799 -777.60699 -284.01001 1.8403113e-38
694.71997 -777.59497 -288.51001 1.8403113e-38
695.07397 -764.07898 -285.87299 1.8403113e-38
699.96399 -755.26703 -285.561 1.8403113e-38
703.63898 -744.841 -284.55499 1.8403113e-38
714.177 -740.74902 -286.90701 1.8403113e-38
712.552 -726.14203 -283.452 1.8403113e-38
723.55054 -715.77051 -284.66901 1.8403113e-38
732.96002 -704.11798 -285.146 1.8403113e-38
744.37903 -699.742 -287.707 1.8403113e-38
743.35101 -686.77301 -284.76401 1.8403113e-38
751.63501 -680.03003 -285.89801 1.8403113e-38
760.36499 -674.14001 -287.33899 1.8403113e-38
767.80103 -666.67297 -288.07001 1.8403113e-38
768.66803 -655.349 -286.03299 1.8403113e-38
776.74799 -648.30402 -287.04401 1.8403113e-38
786.09302 -642.60498 -288.70999 1.8403113e-38
790.12701 -632.85303 -287.94901 1.8403113e-38
799.396 -626.97198 -289.55499 1.8403113e-38
804.08398 -617.62402 -289.07401 1.8403113e-38
806.81403 -607.71399 -287.88699 1.8403113e-38
812.14099 -598.79602 -287.686 1.8403113e-38
815.50897 -589.33502 -286.78299 1.8403113e-38
825.60699 -583.09198 -288.56601 1.8403113e-38
829.65802 -574.00201 -287.94501 1.8403113e-38
836.35999 -565.77698 -288.29999 1.8403113e-38
841.93103 -557.48798 -288.29999 1.8403113e-38
846.83502 -548.27502 -287.91101 1.8403113e-38
854.65302 -535.23547 -287.62598 1.8403113e-38
868.28101 -524.93402 -289.65201 1.8403113e-38
868.64398 -513.52002 -287.44501 1.8403113e-38
887.638 -488.634 -288.13 1.8403113e-38
891.961 -479.04099 -287.48901 1.8403113e-38
903.849 -473.08301 -289.871 1.8403113e-38
903.66699 -461.60999 -287.487 1.8403113e-38
921.28699 -446.24899 -289.69199 1.8403113e-38
924.18103 -436.52301 -288.59201 1.8403113e-38
931.62097 -427.88699 -289.086 1.8403113e-38
933.46997 -417.78799 -287.595 1.8403113e-38
954.12799 -391.379 -288.47501 1.8403113e-38
968.138 -373.67899 -289.11401 1.8403113e-38
968.60797 -363.129 -287.11401 1.8403113e-38
978.25403 -354.61499 -288.29999 1.8403113e-38
990.823 -336.02701 -288.323 1.8403113e-38
1003.12 -317.11899 -288.20001 1.8403113e-38
1007.71 -307.48801 -287.63101 1.8403113e-38
1011.43 -297.09399 -286.64499 1.8403113e-38
1014.01 -286.983 -285.37201 1.8403113e-38
1030.58 -279.095 -288.77701 1.8403113e-38
1036.75 -269.52701 -288.69699 1.8403113e-38
1039.22 -258.689 -287.246 1.8403113e-38
1051.79 -250.097 -289.298 1.8403113e-38
1053.17 -238.98199 -287.457 1.8403113e-38
1059.04 -229.103 -287.22601 1.8403113e-38
1063.05 -218.34801 -286.25601 1.8403113e-38
1073.48 -208.948 -287.49799 1.8403113e-38
1080.17 -198.38499 -287.37399 1.8403113e-38
1089.52 -188.58501 -288.20999 1.8403113e-38
1091.3199 -177.30701 -286.46201 1.8403113e-38
1102.42 -167.466 -287.81799 1.8403113e-38
1107.83 -156.408 -287.20801 1.8403113e-38
1108.33 -145.457 -285.13599 1.8403113e-38
1119.27 -134.67599 -286.254 1.8403113e-38
1121.5 -123.766 -284.71201 1.8403113e-38
1128.46 -112.516 -284.53201 1.8403113e-38
1139.1 -101.871 -285.58499 1.8403113e-38
1143.03 -90.278397 -284.41699 1.8403113e-38
1160.1899 -79.501198 -287.41501 1.8403113e-38
1157.24 -67.583504 -284.104 1.8403113e-38
1174.24 -56.402901 -286.97101 1.8403113e-38
1177.79 -44.410301 -285.60901 1.8403113e-38
1182.17 -32.931099 -284.60199 1.8403113e-38
1190.3199 -20.721901 -284.58401 1.8403113e-38
1199.3 -8.9302702 -284.905 1.8403113e-38
1222.59 4.1707201 -289.27899 1.8403113e-38
1216.04 15.6403 -284.97299 1.8403113e-38
1216.11 27.964399 -282.492 1.8403113e-38
1234.29 40.900101 -285.35901 1.8403113e-38
1253.3199 54.8256 -288.28101 1.8403113e-38
1250.2 66.620399 -284.94501 1.8403113e-38
1258.47 80.034798 -284.71799 1.8403113e-38
1284.84 94.841698 -289.67999 1.8403113e-38
1295.0699 121.41 -287.37601 1.8403113e-38
1294.25 134.39999 -284.491 1.8403113e-38
1314.39 149.65199 -287.48099 1.8403113e-38
1320.98 163.92799 -286.573 1.8403113e-38
1350.04 194.88 -289.069 1.8403113e-38
1349.63 207.854 -286.31201 1.8403113e-38
1358.55 223.214 -285.888 1.8403113e-38
1370.27 238.636 -286.297 1.8403113e-38
1393.15 257.22101 -289.43701 1.8403113e-38
1402.67 272.76401 -289.15701 1.8403113e-38
1406.26 287.90399 -287.168 1.8403113e-38
1421.17 305.043 -288.194 1.8403113e-38
1426.36 320.88501 -286.54599 1.8403113e-38
1440.96 338.48199 -287.383 1.8403113e-38
1437.37 352.448 -283.46399 1.8403113e-38
1434.73 365.935 -279.92899 1.8403113e-38
1420.58 376.97501 -273.41299 1.8403113e-38
1418.67 390.56799 -270.07599 1.8403113e-38
1410.88 403.17001 -265.16501 1.8403113e-38
1409.67 416.96301 -262.00101 1.8403113e-38
1413.77 433.16599 -259.948 1.8403113e-38
1398.38 442.521 -253.399 1.8403113e-38
1389.24 454.43701 -248.22 1.8403113e-38
1355.23 457.05399 -237.41299 1.8403113e-38
1130.78 404.92401 -180.19 1.8403113e-38
1162.48 404.13 -189.929 1.8403113e-38
336.29001 -733.69397 -171.31599 1.8403113e-38
1122.8101 414.55301 -175.82899 1.8403113e-38
1119.52 425.26099 -172.66 1.8403113e-38
1124.17 439.672 -171.13901 1.8403113e-38
1118.84 449.65201 -167.504 1.8403113e-38
1127.76 466.043 -166.87199 1.8403113e-38
284.63 -670.64301 -142.909 1.8403113e-38
1039.03 441.13199 -145.12399 1.8403113e-38
265.16599 -653.18201 -133.485 1.8403113e-38
998.33801 435.72299 -133.92799 1.8403113e-38
234.347 -641.23999 -121.75 1.8403113e-38
240.132 -626.82501 -120.572 1.8403113e-38
980.42999 439.01599 -127.849 1.8403113e-38
231.58099 -624.72302 -117.561 1.8403113e-38
926.61603 437.01501 -111.998 1.8403113e-38
952.50201 438.06799 -119.605 1.8403113e-38
2034.35 2066.6899 -115.82 1.8403113e-38
205.57001 -605.75 -105.852 1.8403113e-38
901.513 436.409 -104.538 1.8403113e-38
892.61499 442.61899 -100.589 1.8403113e-38
2002.84 2069.73 -105.685 1.8403113e-38
878.19702 446.534 -95.438599 1.8403113e-38
868.36401 452.00101 -91.358002 1.8403113e-38
1967.0601 2069.7 -94.882103 1.8403113e-38
-401.14001 -1407.8199 -85.385002 1.8403113e-38
857.43799 457.302 -86.9813 1.8403113e-38
854.53699 466.12799 -84.313301 1.8403113e-38
1932.26 2068.3201 -84.646301 1.8403113e-38
-372.08401 -1318.1 -75.950897 1.8403113e-38
137.11951 -536.93103 -71.202805 1.8403113e-38
146.8555 -533.60706 -73.469452 1.8403113e-38
153.42599 -529.90802 -74.703499 1.8403113e-38
837.909 478.47 -76.784401 1.8403113e-38
842.66699 470.70801 -79.797501 1.8403113e-38
828.57501 484.194 -72.802498 1.8403113e-38
1896.75 2067.3401 -74.120697 1.8403113e-38
-489.75201 -1428.83 -62.8815 1.8403113e-38
-476.49899 -1423.53 -65.808296 1.8403113e-38
-460.68301 -1409.53 -67.744797 1.8403113e-38
106.122 -536.37402 -61.725498 1.8403113e-38
117.355 -531.61249 -64.152351 1.8403113e-38
107.723 -528.92297 -60.696602 1.8403113e-38
123.52 -527.41498 -65.162598 1.8403113e-38
820.271 489.86499 -69.1427 1.8403113e-38
828.82501 505.70999 -68.510399 1.8403113e-38
833.14697 518.81897 -67.1549 1.8403113e-38
824.39502 524.80798 -63.2952 1.8403113e-38
820.888 533.37 -60.497601 1.8403113e-38
832.18298 551.72998 -60.1828 1.8403113e-38
1861.55 2064.3201 -64.098701 1.8403113e-38
-515.00897 -1431.27 -55.745499 1.8403113e-38
-503.67801 -1433.88 -59.699501 1.8403113e-38
-526.88202 -1428.41 -51.579201 1.8403113e-38
75.896606 -533.95148 -52.102547 1.8403113e-38
85.698898 -532.72601 -54.815102 1.8403113e-38
96.787903 -533.87549 -58.398499 1.8403113e-38
823.43597 557.177 -56.434502 1.8403113e-38
825.22803 569.90399 -54.3922 1.8403113e-38
822.15503 579.02301 -51.6129 1.8403113e-38
1826.36 2062.3899 -53.857498 1.8403113e-38
-563.55701 -1427.09 -40.2318 1.8403113e-38
-551.99298 -1429.1801 -44.149399 1.8403113e-38
-538.15503 -1425.59 -47.601101 1.8403113e-38
49.273499 -536.91101 -44.6605 1.8403113e-38
57.045601 -531.31799 -45.873199 1.8403113e-38
67.257797 -531.79901 -49.055698 1.8403113e-38
41.198799 -527.89001 -40.3899 1.8403113e-38
51.223099 -528.71198 -43.584999 1.8403113e-38
60.989799 -528.42902 -46.478199 1.8403113e-38
826.15503 593.49597 -49.882999 1.8403113e-38
826.961 605.435 -47.702999 1.8403113e-38
821.68402 613.86401 -44.3978 1.8403113e-38
823.875 626.99701 -42.393799 1.8403113e-38
824.84698 640.02698 -40.042198 1.8403113e-38
1799.5601 2067.3101 -44.7644 1.8403113e-38
-585.63501 -1417.71 -31.6574 1.8403113e-38
-571.39398 -1411.48 -34.694901 1.8403113e-38
14.299933 -532.76935 -33.2542 1.8403113e-38
29.1357 -534.96301 -38.181499 1.8403113e-38
33.1455 -532.30701 -38.853699 1.8403113e-38
22.6486 -529.27002 -35.066002 1.8403113e-38
36.601299 -528.79999 -39.185799 1.8403113e-38
827.53998 653.88501 -38.042599 1.8403113e-38
821.04498 661.698 -34.494099 1.8403113e-38
822.67102 675.047 -32.2756 1.8403113e-38
1178.04 1208.64 -31.3113 1.8403113e-38
1764.62 2064.51 -34.775398 1.8403113e-38
-628.87299 -1431.41 -21.375999 1.8403113e-38
-602.81299 -1430.22 -29.007401 1.8403113e-38
-614.71899 -1428.62 -25.0853 1.8403113e-38
-22.3932 -531.427 -21.8967 1.8403113e-38
-12.4595 -535.46997 -25.718399 1.8403113e-38
-6.2123804 -533.46851 -27.19945 1.8403113e-38
-27.2862 -529.82703 -20.093599 1.8403113e-38
-18.554899 -529.276 -22.6196 1.8403113e-38
-0.49385801 -529.53601 -28.1287 1.8403113e-38
4.0287399 -528.99103 -29.384199 1.8403113e-38
822.28601 687.651 -29.600901 1.8403113e-38
822.83002 700.50403 -27.1558 1.8403113e-38
825.26001 715.672 -24.8109 1.8403113e-38
819.32001 723.62402 -21.4021 1.8403113e-38
1735.97 2066.48 -25.7236 1.8403113e-38
-642.18597 -1433.3101 -17.74 1.8403113e-38
-652.242 -1424.63 -12.9397 1.8403113e-38
-283.811 -889.14697 -15.5396 1.8403113e-38
-30.942499 -532.85303 -19.6035 1.8403113e-38
-53.4245 -529.53601 -12.1382 1.8403113e-38
-41.4902 -523.65698 -14.5501 1.8403113e-38
-36.363602 -528.31299 -17.0441 1.8403113e-38
-47.593399 -514.22198 -10.7911 1.8403113e-38
819.138 736.98999 -18.633801 1.8403113e-38
828.24799 757.685 -17.1849 1.8403113e-38
824.487 775.1925 -12.494801 1.8403113e-38
1701.3199 2062.8101 -15.9997 1.8403113e-38
-693.34998 -1429.9301 -1.5961 1.8403113e-38
-679.16602 -1426.6801 -5.2234001 1.8403113e-38
-666.65997 -1429.08 -9.4872303 1.8403113e-38
-135.1265 -604.65454 -2.7051501 1.8403113e-38
-125.731 -595.742 -3.7341499 1.8403113e-38
-116.4295 -594.99902 -6.3934698 1.8403113e-38
-107.4845 -585.78949 -7.2261 1.8403113e-38
-100.99 -579.17102 -7.84446 1.8403113e-38
-96.410202 -577.61798 -8.9129496 1.8403113e-38
-93.032799 -563.41101 -7.04914 1.8403113e-38
-84.980232 -553.3623 -7.4419436 1.8403113e-38
-76.726799 -549.05798 -9.0615997 1.8403113e-38
-74.531601 -529.91901 -5.83953 1.8403113e-38
-63.953701 -515.97302 -6.2041402 1.8403113e-38
-55.690899 -515.13397 -8.5299606 1.8403113e-38
-72.983398 -509.87399 -2.23804 1.8403113e-38
-69.459702 -505.22501 -2.3589201 1.8403113e-38
818.21997 790.74103 -7.44491 1.8403113e-38
818.31799 804.586 -4.6640401 1.8403113e-38
1673.53 2064.78 -7.2037001 1.8403113e-38
-719.39502 -1428.4 6.5816398 1.8403113e-38
-704.729 -1424.51 2.9398601 1.8403113e-38
-280.396 -767.71997 8.0785799 1.8403113e-38
-216.56 -664.13397 9.8216 1.8403113e-38
-203.782 -645.34497 9.7756395 1.8403113e-38
-198.306 -640.75702 9.0524702 1.8403113e-38
-192.76199 -637.11499 8.1171198 1.8403113e-38
-187.526 -633.41199 7.2868299 1.8403113e-38
-182.10699 -629.672 6.4092598 1.8403113e-38
-176.612 -620.97101 6.5153399 1.8403113e-38
-170.95599 -611.24701 6.7807002 1.8403113e-38
-163.4395 -603.92999 5.9953251 1.8403113e-38
-151.459 -600.37299 3.0980101 1.8403113e-38
-156.13499 -597.51202 5.0914998 1.8403113e-38
-146.168 -573.76001 6.9022102 1.8403113e-38
-141.52 -569.67499 6.3271399 1.8403113e-38
799.53101 802.06799 0.50029099 1.8403113e-38
807.51202 838.29498 5.44344 1.8403113e-38
818.40997 833.495 1.1767499 1.8403113e-38
1638.55 2059.5 2.29336 1.8403113e-38
-763.00403 -1434.1 18.5979 1.8403113e-38
-734.32098 -1430.99 10.5653 1.8403113e-38
-744.69299 -1424.54 15.0088 1.8403113e-38
-303.836 -786.76202 11.294 1.8403113e-38
-244.021 -700.96301 10.6413 1.8403113e-38
-235.776 -684.034 11.5872 1.8403113e-38
-229.522 -679.74902 10.5674 1.8403113e-38
-221.459 -660.71899 11.9947 1.8403113e-38
-209.332 -647.90698 10.9321 1.8403113e-38
1610.33 2059.97 10.9137 1.8403113e-38
-788.91498 -1430.3101 27.1966 1.8403113e-38
-776.72803 -1434.66 22.631901 1.8403113e-38
-272.32101 -675.70898 24.317101 1.8403113e-38
-261.53299 -650.44702 26.186399 1.8403113e-38
1542.11 2046.54 28.7957 1.8403113e-38
1576.3199 2054.6001 20.097 1.8403113e-38
-832.25201 -1433.14 39.7145 1.8403113e-38
-818.38599 -1433.15 35.522598 1.8403113e-38
-803.12 -1431.49 31.247999 1.8403113e-38
-860.65302 -1432.39 48.445099 1.8403113e-38
-845.34198 -1430.04 44.298 1.8403113e-38
1394.95 1895.59 42.610802 1.8403113e-38
1402.66 1937.97 48.8839 1.8403113e-38
-894.46802 -1440.6899 56.976002 1.8403113e-38
-876.604 -1434.29 52.878601 1.8403113e-38
1457.91 2045.71 54.064701 1.8403113e-38
-919.87097 -1458.79 60.976299 1.8403113e-38
-922.77802 -1437.79 66.118103 1.8403113e-38
1438.1899 2054.48 61.801601 1.8403113e-38
-926.95001 -1418.23 71.348297 1.8403113e-38
-931.30902 -1400.73 76.218399 1.8403113e-38
1306.53 1945.5 79.455597 1.8403113e-38
1379.14 2011.26 70.867302 1.8403113e-38
-929.25897 -1371.78 81.475502 1.8403113e-38
-930.95502 -1350.9399 86.218903 1.8403113e-38
1301.89 1974.72 86.787003 1.8403113e-38
-932.87799 -1329.8199 91.0867 1.8403113e-38
-933.98499 -1309.0699 95.632797 1.8403113e-38
1333.6801 2055.1001 93.500504 1.8403113e-38
-929.862 -1279.67 100.357 1.8403113e-38
-930.31897 -1259.08 104.675 1.8403113e-38
-930.96997 -1238.22 109.105 1.8403113e-38
1283.37 2055.6599 108.813 1.8403113e-38
1309.1899 2057.47 101.38 1.8403113e-38
