# .PCD v0.7 - Point Cloud Data file format
VERSION 0.7
FIELDS x y z rgb
SIZE 4 4 4 4
TYPE F F F F
COUNT 1 1 1 1
WIDTH 338
HEIGHT 1
VIEWPOINT 0 0 0 1 0 0 0
POINTS 338
DATA ascii
507.776 -4283.73 -435.763 1.8403113e-38
441.46799 -4065.8601 -438.88199 1.8403113e-38
382.595 -3838.2 -438.47501 1.8403113e-38
331.017 -3612.8701 -435.716 1.8403113e-38
284.67801 -3418.8201 -434.017 1.8403113e-38
242.089 -3255.0801 -433.811 1.8403113e-38
204.304 -3095.95 -432.34201 1.8403113e-38
168.425 -2964.1899 -432.741 1.8403113e-38
135.716 -2840.0601 -432.73401 1.8403113e-38
105.785 -2723.6101 -432.461 1.8403113e-38
78.735199 -2611.9299 -431.61801 1.8403113e-38
53.056702 -2511.8899 -431.37 1.8403113e-38
25.609501 -2436 -433.987 1.8403113e-38
1.77641 -2354.1599 -434.78101 1.8403113e-38
-21.3566 -2279.95 -436.03601 1.8403113e-38
-62.115299 -2136.1799 -437.03799 1.8403113e-38
-107.039 -1921.4301 -432.92001 1.8403113e-38
-542.33301 -240.101 -430.09 1.8403113e-38
-545.823 -236.72301 -431.005 1.8403113e-38
-551.37201 -221.464 -431.54099 1.8403113e-38
-550.164 -217.291 -430.729 1.8403113e-38
-554.53302 -201.797 -430.82901 1.8403113e-38
-555.12 -197.901 -430.67401 1.8403113e-38
-563.909 -182.866 -432.37201 1.8403113e-38
-568.30902 -163.183 -432.09299 1.8403113e-38
-572.51801 -159.603 -433.24301 1.8403113e-38
-572.388 -143.39799 -431.69299 1.8403113e-38
-573.72498 -139.51601 -431.80301 1.8403113e-38
-587.42499 -124.229 -435.20599 1.8403113e-38
-586.16699 -103.839 -432.87201 1.8403113e-38
-588.32001 -99.915398 -433.26501 1.8403113e-38
-593.992 -83.785004 -433.76401 1.8403113e-38
-586.65698 -79.588203 -430.793 1.8403113e-38
-594.89203 -63.428001 -432.19199 1.8403113e-38
-594.08698 -59.395802 -431.534 1.8403113e-38
-598.28601 -43.0378 -431.49399 1.8403113e-38
-595.52698 -39.0401 -430.15201 1.8403113e-38
-608.89502 -22.326799 -433.306 1.8403113e-38
-605.125 -18.3759 -431.612 1.8403113e-38
-618.21997 -1.2883 -434.63501 1.8403113e-38
-606.83398 2.23809 -430.30099 1.8403113e-38
-617.76501 19.458599 -432.54999 1.8403113e-38
-617.63397 23.5611 -432.12299 1.8403113e-38
-619.22253 42.4356 -430.93048 1.8403113e-38
-624.29901 61.750401 -430.92499 1.8403113e-38
-635.02802 84.050697 -432.63101 1.8403113e-38
-638.12549 107.853 -431.513 1.8403113e-38
-644.078 128.07899 -431.73001 1.8403113e-38
-653.83447 153.5605 -432.7995 1.8403113e-38
-660.37799 196.69099 -431.10001 1.8403113e-38
-662.45898 201.539 -431.383 1.8403113e-38
-668.71399 220.89999 -431.78699 1.8403113e-38
-672.94653 246.78799 -430.87451 1.8403113e-38
-684.05798 270.38 -432.59601 1.8403113e-38
-677.59601 273.172 -430.06201 1.8403113e-38
-687.38202 294.56201 -431.521 1.8403113e-38
-692.09497 319.508 -430.86499 1.8403113e-38
-693.724 324.711 -430.95599 1.8403113e-38
-703.61298 347.11401 -432.35699 1.8403113e-38
-716.39697 375.862 -434.18799 1.8403113e-38
-705.18402 376.75601 -430.159 1.8403113e-38
-725.01398 403.83499 -434.625 1.8403113e-38
-715.55902 405.25201 -431.16599 1.8403113e-38
-723.258 428.37299 -431.73001 1.8403113e-38
-734.93396 461.24152 -432.78949 1.8403113e-38
-742.24103 487.914 -432.88501 1.8403113e-38
-737.06598 490.875 -430.789 1.8403113e-38
-750.85602 550.93103 -430.069 1.8403113e-38
-765.67999 580.42902 -432.54901 1.8403113e-38
-778.78497 615.53003 -433.90399 1.8403113e-38
-769.02301 616.11401 -430.414 1.8403113e-38
-786.02802 648.49902 -433.39301 1.8403113e-38
-790.047 680.47101 -431.841 1.8403113e-38
-787.77002 685.12799 -430.60699 1.8403113e-38
-809.26099 722.11298 -434.73901 1.8403113e-38
-796.85303 720.89801 -430.48499 1.8403113e-38
-843.29498 874.664 -432.56 1.8403113e-38
456.276 -3944.1001 -422.371 1.8403113e-38
398.539 -3721.72 -422.05399 1.8403113e-38
153.483 -2775.8899 -420.526 1.8403113e-38
66.821503 -2482.6899 -423.81601 1.8403113e-38
45.254299 -2378.9299 -421.77802 1.8403113e-38
16.900299 -2321.54 -426.431 1.8403113e-38
-3.1896999 -2236.05 -425.56799 1.8403113e-38
-31.454901 -2163.73 -428.80399 1.8403113e-38
-24.9753 -2167.8201 -426.90302 1.8403113e-38
-43.658001 -2095.74 -426.789 1.8403113e-38
-56.046398 -2009.54 -423.151 1.8403113e-38
-74.573196 -1929.76 -422.267 1.8403113e-38
-92.638702 -1898.6899 -425.741 1.8403113e-38
-556.95801 -178.07401 -429.48099 1.8403113e-38
-568.01703 -119.047 -427.89499 1.8403113e-38
-622.14697 65.671303 -429.80399 1.8403113e-38
-628.10699 87.385498 -429.88599 1.8403113e-38
-639.84698 131.657 -429.91 1.8403113e-38
-650.83148 174.86099 -429.7655 1.8403113e-38
-664.22302 224.284 -429.89301 1.8403113e-38
-679.94897 296.991 -428.67999 1.8403113e-38
-695.16199 349.05899 -429.202 1.8403113e-38
-717.33801 431.047 -429.39801 1.8403113e-38
-740.75 513.79901 -429.95901 1.8403113e-38
-736.38898 517.08899 -428.11801 1.8403113e-38
-748.34802 544.32397 -429.79999 1.8403113e-38
-755.96997 581.10901 -429.069 1.8403113e-38
-772.83002 647.10901 -428.87799 1.8403113e-38
-797.73999 746.39001 -428.431 1.8403113e-38
-780.39398 741.89099 -422.74399 1.8403113e-38
-835.58698 876.16998 -429.707 1.8403113e-38
579.20599 -4377.02 -419.28201 1.8403113e-38
592.841 -4351.2998 -412.09601 1.8403113e-38
521.27002 -4163.6602 -419.87299 1.8403113e-38
348.54401 -3488.76 -418.03 1.8403113e-38
301.44299 -3329.75 -419.85101 1.8403113e-38
259.5 -3170.28 -419.81299 1.8403113e-38
221.284 -3025.28 -419.80801 1.8403113e-38
186.95799 -2886.9199 -419.048 1.8403113e-38
124.556 -2657.78 -419.746 1.8403113e-38
97.137398 -2553.26 -419.69601 1.8403113e-38
-54.793499 -1887.97 -411.427 1.8403113e-38
-492.23801 -246.69901 -413.07199 1.8403113e-38
-26.306299 -1883.71 -401.00699 1.8403113e-38
-736.68103 739.14801 -407.61401 1.8403113e-38
-714.59601 731.01202 -400.59601 1.8403113e-38
-722.28302 766.51599 -400.00699 1.8403113e-38
-741.20203 836.758 -400.147 1.8403113e-38
-746.32202 846.90198 -401.00699 1.8403113e-38
650.65002 -4377.3901 -394.172 1.8403113e-38
-711.867 753.52197 -397.547 1.8403113e-38
664.38702 -4366.3501 -388.31299 1.8403113e-38
-760.39697 1103.4399 -382.15399 1.8403113e-38
-938.34198 1801.15 -380.03201 1.8403113e-38
-648.97498 807.685 -370.38599 1.8403113e-38
-733.10101 1040.3 -378.40701 1.8403113e-38
-753.14899 1136.84 -376.504 1.8403113e-38
-738.69501 1131.16 -371.944 1.8403113e-38
-937.86902 1813.27 -378.741 1.8403113e-38
-941.57898 1870.87 -374.702 1.8403113e-38
-938.98199 1880.7 -372.875 1.8403113e-38
721.75598 -4370.4702 -368.505 1.8403113e-38
736.22302 -4377.0898 -364.02802 1.8403113e-38
-368.80499 -226.416 -367.74799 1.8403113e-38
-645.39697 798.909 -369.94199 1.8403113e-38
-637.91302 824.35602 -364.94601 1.8403113e-38
-624.33002 820.091 -360.56201 1.8403113e-38
-707.59003 1062.8101 -367.34 1.8403113e-38
-946.44299 1945.99 -369.44199 1.8403113e-38
-942.362 1954.29 -367.23599 1.8403113e-38
-944.69598 2015.29 -362.397 1.8403113e-38
-610.79999 834.56897 -354.45599 1.8403113e-38
-601.89502 833.672 -351.405 1.8403113e-38
-648.992 973.13599 -355.03799 1.8403113e-38
-742.92499 1298.9301 -357.86401 1.8403113e-38
-740.62 1305.52 -356.44101 1.8403113e-38
-737.45099 1339.46 -352.17599 1.8403113e-38
-733.01202 1343.85 -350.20599 1.8403113e-38
-938.06598 2020.36 -359.59299 1.8403113e-38
-944.43201 2089.97 -355.37299 1.8403113e-38
-940.32898 2099.1499 -353.077 1.8403113e-38
794.237 -4387.1201 -344.54099 1.8403113e-38
-584.60797 851.04797 -343.70901 1.8403113e-38
-604.07001 860.81702 -349.65201 1.8403113e-38
-593.07703 883.88397 -343.642 1.8403113e-38
-712.28101 1358.5 -341.55099 1.8403113e-38
-732.45502 1431.62 -341.86499 1.8403113e-38
-731.50098 1440.54 -340.70099 1.8403113e-38
803.85101 -4320.8198 -335.00601 1.8403113e-38
-285.48599 -237.95399 -339.496 1.8403113e-38
-290.65701 -223.565 -339.98001 1.8403113e-38
-282.66501 -224.922 -337.293 1.8403113e-38
-578.96301 878.23798 -339.19901 1.8403113e-38
-705.20398 1359.8 -338.939 1.8403113e-38
-733.815 1485.04 -337.38699 1.8403113e-38
-706.00201 1460.84 -329.84299 1.8403113e-38
49.721901 -1239.12 -314.431 1.8403113e-38
57.508701 -1230.88 -310.92499 1.8403113e-38
-207.02299 -222.66499 -310.46201 1.8403113e-38
85.641701 -1281.42 -305.715 1.8403113e-38
84.493301 -1271.41 -305.19 1.8403113e-38
84.652199 -1219.42 -300.30899 1.8403113e-38
59.4842 -1168.29 -304.422 1.8403113e-38
-195.30299 -231.035 -307.11401 1.8403113e-38
-481.89099 919.68298 -301.189 1.8403113e-38
-495.51901 926.46698 -305.35599 1.8403113e-38
83.845497 -1209.47 -299.67001 1.8403113e-38
74.988503 -1119.49 -294.43701 1.8403113e-38
74.443497 -1080.16 -290.979 1.8403113e-38
74.502403 -1070.39 -290.05099 1.8403113e-38
-172.78799 -228.075 -298.91599 1.8403113e-38
-468.43301 973.85901 -291.42499 1.8403113e-38
75.545403 -1030.46 -285.979 1.8403113e-38
79.494499 -1012.76 -282.94601 1.8403113e-38
76.921204 -983.823 -281.16699 1.8403113e-38
33.324997 -845.76599 -283.698 1.8403113e-38
20.305099 -833.06201 -287.10101 1.8403113e-38
31.6035 -820.98102 -282.004 1.8403113e-38
-123.538 -240.853 -282.76801 1.8403113e-38
-138.638 -232.283 -287.28799 1.8403113e-38
-119.696 -237.216 -281.07901 1.8403113e-38
-427.63898 894.92401 -284.39349 1.8403113e-38
-460.116 958.29901 -289.94199 1.8403113e-38
814.289 -3758.9099 -279.186 1.8403113e-38
78.392303 -972.44702 -279.59299 1.8403113e-38
75.870903 -945.46997 -277.97699 1.8403113e-38
75.056801 -939.42401 -277.702 1.8403113e-38
75.952003 -907.41199 -274.41699 1.8403113e-38
82.429901 -887.578 -270.29599 1.8403113e-38
61.456402 -826.323 -271.99301 1.8403113e-38
20.8542 -652.94397 -270.19299 1.8403113e-38
-109.965 -246.93401 -278.556 1.8403113e-38
-94.920998 -244.707 -273.05499 1.8403113e-38
-116.602 -223.782 -278.74301 1.8403113e-38
815.909 -3635.8601 -267.19601 1.8403113e-38
86.255997 -852.52502 -265.69699 1.8403113e-38
94.134201 -831.20801 -260.94601 1.8403113e-38
67.900002 -821.31897 -269.26099 1.8403113e-38
81.134804 -823.01898 -264.76099 1.8403113e-38
28.910299 -647.33502 -266.83701 1.8403113e-38
46.7314 -646.58301 -260.496 1.8403113e-38
93.084099 -807.68597 -259.133 1.8403113e-38
80.3871 -663.565 -250.22701 1.8403113e-38
72.294998 -654.51349 -252.2345 1.8403113e-38
47.1255 -641.81201 -259.914 1.8403113e-38
67.139648 -639.52753 -252.65799 1.8403113e-38
-45.9063 -240.71201 -255.43401 1.8403113e-38
-46.569901 -238.666 -255.47701 1.8403113e-38
99.1269 -687.69098 -245.87 1.8403113e-38
88.041298 -675.69501 -248.659 1.8403113e-38
91.737 -674.89398 -247.284 1.8403113e-38
84.084198 -662.82202 -248.85699 1.8403113e-38
107.576 -669.961 -241.25101 1.8403113e-38
-28.9573 -244 -249.774 1.8403113e-38
-2.54897 -245.47 -240.616 1.8403113e-38
97.082397 -543.41003 -233.2005 1.8403113e-38
97.039352 -526.10651 -231.61 1.8403113e-38
95.640701 -512.586 -230.847 1.8403113e-38
32.840599 -341.37 -237.06 1.8403113e-38
41.098499 -338.733 -233.909 1.8403113e-38
39.365002 -325.79401 -233.319 1.8403113e-38
27.558001 -255.9425 -230.992 1.8403113e-38
15.7322 -240.733 -233.742 1.8403113e-38
826.11798 -3256.97 -228.44299 1.8403113e-38
103.76 -500.41901 -226.86099 1.8403113e-38
101.636 -490.00299 -226.642 1.8403113e-38
102.139 -486.383 -226.129 1.8403113e-38
99.519203 -473.80399 -225.883 1.8403113e-38
101.601 -474.65601 -225.23 1.8403113e-38
97.866798 -460.60599 -225.24001 1.8403113e-38
101.948 -459.45999 -223.69701 1.8403113e-38
106.801 -440.46799 -220.22701 1.8403113e-38
104.808 -439.61301 -220.849 1.8403113e-38
100.256 -419.28799 -220.565 1.8403113e-38
97.926498 -405.62701 -220.117 1.8403113e-38
92.473801 -387.30899 -220.336 1.8403113e-38
86.0644 -379.97299 -221.911 1.8403113e-38
83.414749 -368.6145 -221.78999 1.8403113e-38
76.8694 -350.79999 -222.44 1.8403113e-38
81.928497 -357.8165 -221.3105 1.8403113e-38
73.094597 -344.09732 -223.14667 1.8403113e-38
57.919498 -337.729 -227.896 1.8403113e-38
66.883598 -334.35999 -224.429 1.8403113e-38
52.541901 -320.42499 -228.183 1.8403113e-38
68.111404 -294.26849 -220.276 1.8403113e-38
61.984299 -280.75601 -221.179 1.8403113e-38
48.802399 -258.186 -223.72301 1.8403113e-38
55.851898 -253.093 -220.77 1.8403113e-38
33.335499 -242.241 -227.687 1.8403113e-38
51.4804 -237.045 -220.819 1.8403113e-38
827.52899 -3167.74 -219.666 1.8403113e-38
104.884 -427.17999 -219.6685 1.8403113e-38
105.435 -412.086 -218.07401 1.8403113e-38
97.103798 -393.58401 -219.289 1.8403113e-38
104.84 -395.90802 -216.7825 1.8403113e-38
97.295601 -381.043 -218.058 1.8403113e-38
91.743599 -373.22198 -219.286 1.8403113e-38
74.343803 -297.14301 -218.349 1.8403113e-38
71.027901 -286.44901 -218.524 1.8403113e-38
67.55275 -274.85901 -218.67151 1.8403113e-38
66.146599 -260.42001 -217.826 1.8403113e-38
71.651901 -265.81601 -216.39 1.8403113e-38
78.261803 -252.88901 -212.864 1.8403113e-38
974.58502 -3572.6001 -205.481 1.8403113e-38
986.98499 -3578.1799 -201.63499 1.8403113e-38
889.17102 -3250.3401 -205.63699 1.8403113e-38
869.12201 -3168.04 -205.05499 1.8403113e-38
-537.11603 2225.49 -199.446 1.8403113e-38
-527.27698 2223.6001 -196.158 1.8403113e-38
1036.72 -3594.03 -185.60201 1.8403113e-38
1047.04 -3584.5601 -181.091 1.8403113e-38
-182.64799 1003.56 -188.089 1.8403113e-38
-493.77399 2229.5 -183.82001 1.8403113e-38
-482.41299 2223.75 -180.355 1.8403113e-38
-105.138 891.79303 -171.183 1.8403113e-38
1116.0601 -3641.04 -162.043 1.8403113e-38
1092.77 -3572.8501 -163.91 1.8403113e-38
-74.418098 878.02802 -161.649 1.8403113e-38
-80.586998 881.03699 -163.53999 1.8403113e-38
-448.25601 2227.0801 -168.02499 1.8403113e-38
-437.431 2222.02 -164.685 1.8403113e-38
1199.26 -3829.9299 -150.28999 1.8403113e-38
-52.937401 870.86499 -154.75301 1.8403113e-38
-49.449799 871.96002 -153.424 1.8403113e-38
-404.93301 2228.3201 -152.66299 1.8403113e-38
1194.35 -3735.4099 -143.248 1.8403113e-38
-26.8353 868.711 -145.767 1.8403113e-38
-34.321201 874.57898 -147.85699 1.8403113e-38
-15.7346 877.88702 -141.008 1.8403113e-38
-393.86801 2222.1101 -149.34399 1.8403113e-38
-12.2482 878.828 -139.694 1.8403113e-38
1.3917 883.41998 -134.468 1.8403113e-38
1.58298 890.43402 -133.74899 1.8403113e-38
-347.72 2213.8301 -133.87199 1.8403113e-38
-358.61099 2220.26 -137.108 1.8403113e-38
1201.11 -3517.6799 -120.663 1.8403113e-38
13.884901 901.3905 -128.403 1.8403113e-38
25.066299 914.84198 -123.22 1.8403113e-38
26.421101 920.07501 -122.257 1.8403113e-38
1219.73 -3551.76 -117.273 1.8403113e-38
31.440001 942.89697 -118.373 1.8403113e-38
23.099501 968.862 -118.899 1.8403113e-38
1269.5601 -3560 -100.498 1.8403113e-38
1281.38 -3559.54 -96.2957 1.8403113e-38
-8.8278303 1388.04 -91.235001 1.8403113e-38
-17.5833 1397.5699 -93.432198 1.8403113e-38
12.7505 1387.38 -83.702103 1.8403113e-38
16.4543 1391.87 -81.982002 1.8403113e-38
1344.36 -3570 -75.0998 1.8403113e-38
1330.4399 -3561.9399 -79.253998 1.8403113e-38
38.277599 1389.84 -74.489799 1.8403113e-38
42.959301 1391.4 -72.697701 1.8403113e-38
66.7052 1382.24 -65.190201 1.8403113e-38
68.7435 1392.3 -63.539101 1.8403113e-38
1409.59 -3634.47 -58.128101 1.8403113e-38
1402.92 -3559.8401 -53.548 1.8403113e-38
92.258904 1382.6899 -56.155201 1.8403113e-38
94.442596 1392.7 -54.4576 1.8403113e-38
116.405 1387.46 -47.2146 1.8403113e-38
120.567 1390.66 -45.452499 1.8403113e-38
143.355 1400.72 -36.499802 1.8403113e-38
