# .PCD v0.7 - Point Cloud Data file format
VERSION 0.7
FIELDS x y z rgb
SIZE 4 4 4 4
TYPE F F F F
COUNT 1 1 1 1
WIDTH 327
HEIGHT 1
VIEWPOINT 0 0 0 1 0 0 0
POINTS 327
DATA ascii
791.64001 -661.35602 -290.151 1.8403113e-38
1221.84 -163.82401 -290.01001 1.8403113e-38
533.35498 -932.11401 -283.577 1.8403113e-38
540.61102 -929.71002 -285.00101 1.8403113e-38
545.828 -915.35797 -283.017 1.8403113e-38
554.84302 -915.008 -285.41501 1.8403113e-38
561.02698 -902.02197 -284.02301 1.8403113e-38
566.95001 -897.97198 -284.68799 1.8403113e-38
577.05054 -884.26349 -284.202 1.8403113e-38
588.211 -871.84399 -284.314 1.8403113e-38
593.341 -866.92798 -284.55499 1.8403113e-38
597.47601 -852.40002 -282.23199 1.8403113e-38
604.46002 -849.45203 -283.452 1.8403113e-38
613.62701 -840.224 -283.776 1.8403113e-38
620.58002 -837.14301 -284.95499 1.8403113e-38
626.23297 -824.48102 -283.49399 1.8403113e-38
634.49298 -822.58502 -285.315 1.8403113e-38
638.55402 -808.56 -283.09201 1.8403113e-38
649.55298 -809.06799 -286.23999 1.8403113e-38
657.13696 -793.57446 -284.6355 1.8403113e-38
671.58698 -784.17798 -286.37399 1.8403113e-38
673.34698 -776.34497 -284.992 1.8403113e-38
683.90601 -768.185 -285.95401 1.8403113e-38
684.80103 -759.74103 -284.18799 1.8403113e-38
697.41699 -753.18103 -286.09698 1.8403113e-38
701.12299 -747.052 -285.65701 1.8403113e-38
706.21997 -734.50702 -284.07101 1.8403113e-38
709.80402 -728.34399 -283.58899 1.8403113e-38
723.72498 -722.47498 -286.022 1.8403113e-38
729.51001 -717.88397 -286.51999 1.8403113e-38
743.21051 -707.14697 -287.73251 1.8403113e-38
755.26202 -695.11401 -288.18201 1.8403113e-38
758.59198 -688.70398 -287.57199 1.8403113e-38
763.69202 -676.289 -286.01801 1.8403113e-38
774.79901 -674.96002 -288.75699 1.8403113e-38
778.13397 -661.40997 -286.44699 1.8403113e-38
793.97998 -647.21002 -287.42499 1.8403113e-38
795.38599 -639.659 -286.013 1.8403113e-38
803.94702 -629.35303 -285.914 1.8403113e-38
812.58002 -625.995 -287.48901 1.8403113e-38
821.841 -615.93103 -287.64001 1.8403113e-38
825.49103 -609.664 -287.15201 1.8403113e-38
836.26703 -600.30402 -287.88699 1.8403113e-38
842.33398 -595.26501 -288.35599 1.8403113e-38
847.11603 -582.65802 -286.66901 1.8403113e-38
851.41602 -576.66901 -286.42599 1.8403113e-38
865.72699 -564.66345 -287.50351 1.8403113e-38
873.08698 -549.19299 -285.84399 1.8403113e-38
884.94397 -546.54102 -288.47501 1.8403113e-38
893.48102 -535.47998 -288.189 1.8403113e-38
895.79901 -528.42603 -287.146 1.8403113e-38
905.03302 -517.57202 -287.10199 1.8403113e-38
915.10797 -513.70203 -288.952 1.8403113e-38
920.70203 -501.17899 -287.508 1.8403113e-38
929.85797 -496.74799 -288.97198 1.8403113e-38
936.15698 -484.40302 -287.76501 1.8403113e-38
936.38098 -476.496 -285.94299 1.8403113e-38
947.81799 -465.978 -286.58401 1.8403113e-38
953.28198 -459.922 -286.64499 1.8403113e-38
968.18298 -450.314 -288.457 1.8403113e-38
970.875 -443.20401 -287.504 1.8403113e-38
978.427 -430.952 -286.66299 1.8403113e-38
981.005 -423.78601 -285.66599 1.8403113e-38
996.55798 -413.79999 -287.56601 1.8403113e-38
1000.86 -407.05301 -287.14401 1.8403113e-38
1008.06 -394.388 -286.108 1.8403113e-38
1015.02 -388.28201 -286.56699 1.8403113e-38
1022.95 -375.65601 -285.742 1.8403113e-38
1027.98 -368.92401 -285.521 1.8403113e-38
1043.28 -353.85748 -286.14398 1.8403113e-38
1050.0601 -336.62701 -283.90399 1.8403113e-38
1067 -332.19601 -287.51199 1.8403113e-38
1072.53 -318.448 -285.75601 1.8403113e-38
1081.9399 -312.17899 -286.85501 1.8403113e-38
1085.38 -297.90399 -284.39999 1.8403113e-38
1103.1801 -292.897 -288.104 1.8403113e-38
1107.35 -278.54599 -285.83499 1.8403113e-38
1116.6 -271.80899 -286.77499 1.8403113e-38
1132.86 -259.06299 -288.21201 1.8403113e-38
1125.91 -249.841 -284.104 1.8403113e-38
1144.83 -237.12399 -286.27899 1.8403113e-38
1147.23 -229.11301 -285.03201 1.8403113e-38
1162.16 -215.47501 -285.892 1.8403113e-38
1173.03 -208.20799 -287.151 1.8403113e-38
1172.49 -192.718 -283.31201 1.8403113e-38
1187.0699 -185.541 -285.61499 1.8403113e-38
1196.8101 -170.702 -284.76099 1.8403113e-38
1215.0601 -147.60699 -284.28201 1.8403113e-38
1224.64 -139.485 -284.98199 1.8403113e-38
1234.88 -124.013 -284.11499 1.8403113e-38
1244.34 -115.624 -284.71799 1.8403113e-38
1253.38 -99.776398 -283.42999 1.8403113e-38
1262.7 -91.128899 -283.936 1.8403113e-38
1274.38 -74.952797 -283.29599 1.8403113e-38
1289.36 -65.993599 -285.28299 1.8403113e-38
1298.85 -49.379601 -283.93701 1.8403113e-38
1314.65 -40 -286.05301 1.8403113e-38
1329.67 -22.757601 -286.077 1.8403113e-38
1340.5 -13.1267 -286.76401 1.8403113e-38
1348.48 4.2862401 -284.80899 1.8403113e-38
1366.88 14.6688 -287.401 1.8403113e-38
1382.29 33.0443 -287.263 1.8403113e-38
1395.7 43.576599 -288.444 1.8403113e-38
1401.13 61.678001 -285.62799 1.8403113e-38
1412.4399 72.370796 -286.19299 1.8403113e-38
1432.04 92.276299 -286.84299 1.8403113e-38
1442.2 103.244 -287.026 1.8403113e-38
1450.84 122.511 -284.815 1.8403113e-38
1469.49 134.894 -286.995 1.8403113e-38
1481.63 155.161 -285.51001 1.8403113e-38
1491.4 166.783 -285.42899 1.8403113e-38
1513.76 189.19299 -286.24301 1.8403113e-38
1526.2 201.662 -286.69501 1.8403113e-38
1544.3 224.18401 -286.31201 1.8403113e-38
1564.1801 238.467 -288.38 1.8403113e-38
1576.11 260.62799 -286.383 1.8403113e-38
1594.78 275.26999 -288.03201 1.8403113e-38
1553.73 286.84 -273.98001 1.8403113e-38
1539.72 294.582 -268.28101 1.8403113e-38
1505.2 306.38101 -255.97 1.8403113e-38
1498.7 315.40201 -252.034 1.8403113e-38
1477.3101 329.47601 -242.795 1.8403113e-38
1452.66 333.63501 -235.019 1.8403113e-38
1427.1899 356.01001 -222.68201 1.8403113e-38
1446.24 350.897 -229.14101 1.8403113e-38
406.78299 -791.23602 -215.186 1.8403113e-38
1419.58 372.646 -216.623 1.8403113e-38
1418.35 382.509 -213.935 1.8403113e-38
1407.62 398.103 -207.27 1.8403113e-38
1398.73 405.57101 -203.043 1.8403113e-38
1387.76 420.81 -196.395 1.8403113e-38
1386.22 430.48901 -193.66499 1.8403113e-38
1374.0699 445.13501 -186.83099 1.8403113e-38
1370.51 454.08899 -183.71899 1.8403113e-38
306.245 -670.31799 -158.715 1.8403113e-38
1164.53 398.67599 -140.24001 1.8403113e-38
1152.87 403.276 -135.933 1.8403113e-38
1116.99 405.93201 -125.429 1.8403113e-38
1114.51 413.62701 -122.913 1.8403113e-38
-522.216 -1443.5699 -114.944 1.8403113e-38
-511.97501 -1437.6899 -116.362 1.8403113e-38
-494.492 -1431.2 -119.628 1.8403113e-38
223.981 -575.72101 -113.542 1.8403113e-38
1104.33 425.53 -117.274 1.8403113e-38
1109.95 436.47601 -116.213 1.8403113e-38
1111.37 453.17001 -112.629 1.8403113e-38
-571.22198 -1441.11 -100.874 1.8403113e-38
-563.034 -1443.1801 -103.62 1.8403113e-38
-537.29102 -1440.2 -109.993 1.8403113e-38
-545.47101 -1438.29 -107.288 1.8403113e-38
201.603 -564.47101 -104.704 1.8403113e-38
211.80299 -566.12 -107.904 1.8403113e-38
-596.828 -1442.5 -94.159401 1.8403113e-38
-586.23199 -1437.1801 -95.807602 1.8403113e-38
180.423 -541.505 -93.4049 1.8403113e-38
1037.73 430.65399 -97.726997 1.8403113e-38
-648.39001 -1443.8199 -80.283798 1.8403113e-38
-636.88501 -1437.02 -81.8311 1.8403113e-38
-615.42554 -1435.6851 -87.418404 1.8403113e-38
974.98499 426.48199 -81.455704 1.8403113e-38
986.651 423.62701 -85.346001 1.8403113e-38
-673.62 -1441.88 -72.879303 1.8403113e-38
-662.67499 -1437.15 -74.764397 1.8403113e-38
95.591103 -545.177 -70.935501 1.8403113e-38
105.10249 -542.31006 -72.869949 1.8403113e-38
109.814 -537.23602 -72.957901 1.8403113e-38
119.982 -535.31299 -75.297501 1.8403113e-38
111.834 -528.177 -71.355598 1.8403113e-38
139.42 -500.32501 -72.311699 1.8403113e-38
131.81 -499.996 -70.139099 1.8403113e-38
941.302 425.78299 -72.353203 1.8403113e-38
-699.61798 -1441.3 -65.588097 1.8403113e-38
-714.53302 -1435.91 -60.198101 1.8403113e-38
-688.19598 -1435.86 -67.433098 1.8403113e-38
65.027397 -540.91302 -61.509399 1.8403113e-38
74.125504 -545.21045 -65.036697 1.8403113e-38
84.595551 -544.88953 -67.841354 1.8403113e-38
115.178 -511.96503 -68.413498 1.8403113e-38
117.332 -500.87201 -66.363701 1.8403113e-38
122.575 -503.004 -68.314499 1.8403113e-38
125.472 -496.39301 -67.536697 1.8403113e-38
135.66299 -489.052 -68.5924 1.8403113e-38
918.01202 422.77301 -66.661499 1.8403113e-38
-754.65698 -1445.01 -51.324799 1.8403113e-38
-725.69897 -1440.23 -58.154202 1.8403113e-38
-742.55798 -1439.09 -53.2444 1.8403113e-38
19.8533 -552.65698 -51.875999 1.8403113e-38
27.71435 -543.05902 -51.752647 1.8403113e-38
45.006901 -543.81635 -56.69173 1.8403113e-38
58.075802 -540.22101 -59.431599 1.8403113e-38
34.532001 -539.99103 -52.897999 1.8403113e-38
53.998901 -539.08801 -58.0397 1.8403113e-38
876.50403 417.08701 -56.593899 1.8403113e-38
877.42798 425.01401 -54.959499 1.8403113e-38
-780.14801 -1441.0601 -43.368801 1.8403113e-38
-768.75 -1437.17 -45.579899 1.8403113e-38
-11.7695 -542.46899 -40.746899 1.8403113e-38
-5.9218202 -541.33252 -42.085403 1.8403113e-38
4.4213505 -544.51801 -45.690651 1.8403113e-38
15.553699 -544.63098 -48.780849 1.8403113e-38
845.86951 426.77399 -45.856152 1.8403113e-38
846.07501 444.216 -41.757702 1.8403113e-38
858.16302 458.08401 -41.780102 1.8403113e-38
-826.14203 -1441.61 -30.843599 1.8403113e-38
-808.216 -1442 -35.868698 1.8403113e-38
-797.979 -1441.04 -38.4571 1.8403113e-38
-51.6954 -549.08197 -31.335699 1.8403113e-38
-44.959702 -546.69098 -32.61945 1.8403113e-38
-34.631531 -542.74603 -34.521866 1.8403113e-38
-25.4098 -547.16803 -38.112999 1.8403113e-38
-18.4475 -545.3255 -39.589851 1.8403113e-38
822.02899 459.94699 -31.393 1.8403113e-38
858.04401 472.05399 -38.419701 1.8403113e-38
906.61603 553.198 -32.455101 1.8403113e-38
935.73999 561.91302 -38.393398 1.8403113e-38
-865.289 -1443.02 -20.4086 1.8403113e-38
-854.00403 -1440.72 -22.963699 1.8403113e-38
-837.78601 -1445.03 -28.455 1.8403113e-38
-84.446602 -542.61096 -20.781601 1.8403113e-38
-75.571304 -545.125 -23.822849 1.8403113e-38
-65.019173 -545.59467 -26.838333 1.8403113e-38
-56.359901 -541.40198 -28.2225 1.8403113e-38
808.854 466.27701 -26.259701 1.8403113e-38
808.47803 473.51099 -24.4328 1.8403113e-38
1976.58 1822.9399 -24.406 1.8403113e-38
-896.20203 -1446.59 -12.7515 1.8403113e-38
-883.39099 -1441.89 -15.1561 1.8403113e-38
-338.005 -831.23102 -19.763201 1.8403113e-38
-291.72198 -777.13397 -19.6124 1.8403113e-38
-285.43201 -767.09998 -18.952801 1.8403113e-38
-156.11099 -585.43903 -11.2635 1.8403113e-38
-89.907997 -544.20502 -19.658501 1.8403113e-38
-106.0645 -534.84351 -12.98255 1.8403113e-38
-97.611549 -537.3125 -15.8967 1.8403113e-38
780.77899 499.60599 -10.5942 1.8403113e-38
815.33099 513.13599 -16.879101 1.8403113e-38
1984.3 1852.15 -19.5711 1.8403113e-38
2007.35 1915.05 -10.9316 1.8403113e-38
-939.646 -1471.2 -6.65908 1.8403113e-38
-920.24597 -1455.5 -8.2585201 1.8403113e-38
-260.31699 -672.33002 -3.2878301 1.8403113e-38
-255.689 -666.96002 -3.2818401 1.8403113e-38
-245.21799 -654.79401 -3.2649951 1.8403113e-38
-235.60651 -658.1615 -6.7123199 1.8403113e-38
-226.091 -649.086 -7.1686902 1.8403113e-38
-221.412 -639.59399 -6.1950402 1.8403113e-38
-214.467 -634.12201 -6.80269 1.8403113e-38
-210.25 -626.50201 -6.14783 1.8403113e-38
-201.9845 -621.935 -7.33425 1.8403113e-38
-192.85001 -604.58801 -5.7155499 1.8403113e-38
-189.91299 -608.53198 -7.4631701 1.8403113e-38
-181.827 -599.78748 -7.6050749 1.8403113e-38
-174.19501 -595.81201 -8.75811 1.8403113e-38
-170.66299 -586.00098 -7.3931398 1.8403113e-38
-164.868 -582.909 -8.2509899 1.8403113e-38
-161.657 -576.94598 -7.7141399 1.8403113e-38
-152.942 -563.85901 -6.9948602 1.8403113e-38
-147.54401 -553.78003 -6.0793099 1.8403113e-38
-144.735 -545.78998 -4.9486599 1.8403113e-38
-139.37601 -548.26599 -7.01333 1.8403113e-38
-121.316 -527.79901 -7.1073499 1.8403113e-38
-114.839 -526.90906 -8.6775608 1.8403113e-38
-130.008 -512.28497 -1.01965 1.8403113e-38
-124.796 -516.54199 -3.4679101 1.8403113e-38
775.81 514.18951 -5.7527304 1.8403113e-38
782.27301 536.35602 -2.2506599 1.8403113e-38
809.55902 562.27698 -3.5841999 1.8403113e-38
817.01099 582.28302 -0.86903697 1.8403113e-38
832.216 601.01898 -0.58983201 1.8403113e-38
2015.7 1946.08 -5.83741 1.8403113e-38
-941.72101 -1440.63 1.19479 1.8403113e-38
-945.70502 -1429.3199 4.9843102 1.8403113e-38
-277.52802 -671.90997 1.54878 1.8403113e-38
-291.06299 -668.64801 6.0504198 1.8403113e-38
-286.612 -665.435 5.5908399 1.8403113e-38
-279.23801 -662.67798 4.2185402 1.8403113e-38
-137.57401 -514.03998 0.64426601 1.8403113e-38
-132.894 -507.73099 0.859626 1.8403113e-38
850.50299 629.51398 1.16619 1.8403113e-38
823.90399 635.17902 9.8351202 1.8403113e-38
844.93597 634.30701 3.84006 1.8403113e-38
2037.0699 2009.98 3.50528 1.8403113e-38
-949.50201 -1403.14 12.2664 1.8403113e-38
-945.87201 -1379.9 16.803499 1.8403113e-38
828.74103 647.46802 11.4317 1.8403113e-38
839.55798 671.927 14.2819 1.8403113e-38
851.99902 690.49701 15.282 1.8403113e-38
-947.76001 -1352.17 23.930201 1.8403113e-38
-950.44098 -1340.08 27.5473 1.8403113e-38
834.599 694.01898 20.909401 1.8403113e-38
854.52802 719.01001 21.378401 1.8403113e-38
847.79999 731.15601 26.1234 1.8403113e-38
897.34601 781.23901 24.420401 1.8403113e-38
1971.65 2039.54 28.5494 1.8403113e-38
-950.47101 -1310.79 34.534 1.8403113e-38
-949.48798 -1293.73 38.326599 1.8403113e-38
834.64801 757.46698 36.010502 1.8403113e-38
843.94098 755.474 32.9785 1.8403113e-38
847.09198 786.37097 39.4716 1.8403113e-38
1480.39 1497.6899 34.651901 1.8403113e-38
-948.65198 -1264.64 45.026901 1.8403113e-38
-951.10901 -1253.5 48.3568 1.8403113e-38
854.979 803.40198 41.358799 1.8403113e-38
1544.25 1594.39 40.1152 1.8403113e-38
1909.09 2045.72 47.2369 1.8403113e-38
1932.4301 2045.08 40.660702 1.8403113e-38
-950.047 -1225.41 54.756199 1.8403113e-38
-951.58002 -1213.5 58.0145 1.8403113e-38
1867.29 2047.36 59.131802 1.8403113e-38
-954.995 -1192.91 63.8601 1.8403113e-38
-955.03003 -1179.4301 67.081299 1.8403113e-38
1844.09 2047.41 65.526398 1.8403113e-38
-951.29498 -1150.09 73.041397 1.8403113e-38
-953.33002 -1139.92 76.024902 1.8403113e-38
1798.5 2043.59 77.159897 1.8403113e-38
-953.08002 -1116.38 81.563698 1.8403113e-38
-953.58698 -1104.6801 84.491699 1.8403113e-38
-952.69501 -1081.3 89.814301 1.8403113e-38
1780.88 2048.95 83.286301 1.8403113e-38
-954.12701 -1071.24 92.606598 1.8403113e-38
-952.61603 -1048.03 97.718903 1.8403113e-38
1742.3 2051.49 94.509499 1.8403113e-38
-958.87701 -1044.17 100.361 1.8403113e-38
-951.633 -1015 105.317 1.8403113e-38
-956.40002 -1009.61 107.913 1.8403113e-38
1718.1 2048.9099 100.553 1.8403113e-38
1671.9399 2041.38 111.462 1.8403113e-38
