# .PCD v0.7 - Point Cloud Data file format
VERSION 0.7
FIELDS x y z rgb
SIZE 4 4 4 4
TYPE F F F F
COUNT 1 1 1 1
WIDTH 339
HEIGHT 1
VIEWPOINT 0 0 0 1 0 0 0
POINTS 339
DATA ascii
1803.3 -1203.2 -430.51999 1.8403113e-38
1829.5 -1173.22 -430.56299 1.8403113e-38
1848.3199 -1150.72 -430.36301 1.8403113e-38
1869.25 -1129.01 -430.92999 1.8403113e-38
1885.11 -1116.49 -432.298 1.8403113e-38
1895.03 -1105.4451 -432.38849 1.8403113e-38
1902.71 -1092.4399 -431.39401 1.8403113e-38
1909.7 -1085.27 -431.60101 1.8403113e-38
1918.14 -1079.16 -432.46399 1.8403113e-38
1924.21 -1071.36 -432.26901 1.8403113e-38
1935.66 -1067.27 -434.436 1.8403113e-38
1943.84 -1061.0601 -435.20401 1.8403113e-38
1951.53 -1053.88 -435.60101 1.8403113e-38
1951.11 -1041.63 -432.56299 1.8403113e-38
1959.49 -1034.8199 -433.23801 1.8403113e-38
1971.24 -1031.13 -435.586 1.8403113e-38
1974.14 -1020.39 -433.81799 1.8403113e-38
1984.99 -1016.04 -435.76199 1.8403113e-38
1979.86 -1000.1 -430.54599 1.8403113e-38
1992.14 -996.69397 -433.108 1.8403113e-38
1998.8101 -988.18298 -432.91 1.8403113e-38
2008.61 -983.11798 -434.392 1.8403113e-38
2012.8 -972.94202 -433.11499 1.8403113e-38
2017.5699 -964.94897 -432.51599 1.8403113e-38
2027.4 -957.87402 -433.52802 1.8403113e-38
2035.28 -951.66199 -434.21201 1.8403113e-38
2039.3 -941.15399 -432.806 1.8403113e-38
2052.8701 -937.94299 -435.76801 1.8403113e-38
2054.29 -925.93799 -433.293 1.8403113e-38
2058.5 -917.87 -432.52499 1.8403113e-38
2070.5601 -901.06097 -431.82501 1.8403113e-38
2084.0801 -884.79797 -431.65799 1.8403113e-38
2097.3701 -868.23798 -431.35599 1.8403113e-38
2111.3 -851.74597 -431.245 1.8403113e-38
2123.23 -834.24298 -430.34601 1.8403113e-38
2186.3799 -767.36298 -431.73001 1.8403113e-38
2191.95 -755.78101 -430.49701 1.8403113e-38
2212.9099 -730.52698 -430.228 1.8403113e-38
2232.23 -713.23901 -431.409 1.8403113e-38
2254.6201 -682.42603 -430.203 1.8403113e-38
2295.95 -636.63702 -430.62799 1.8403113e-38
2307.3 -624.46997 -430.84201 1.8403113e-38
2314.02 -616.83301 -430.86499 1.8403113e-38
2332.75 -596.62903 -431.19 1.8403113e-38
2346.72 -584.065 -432.03 1.8403113e-38
2354.0601 -576.21002 -432.16901 1.8403113e-38
2359.3501 -562.23297 -430.28601 1.8403113e-38
2380.8 -555.71997 -434.625 1.8403113e-38
2385.95 -541.38898 -432.62 1.8403113e-38
2392.9299 -533.17102 -432.57501 1.8403113e-38
2397.9199 -518.61298 -430.47 1.8403113e-38
2414.29 -510.91699 -433.13101 1.8403113e-38
2423.9099 -496.327 -432.29199 1.8403113e-38
2429.55 -487.71201 -431.78601 1.8403113e-38
2443.8201 -472.974 -432.18701 1.8403113e-38
2445.4099 -464.07599 -430.50101 1.8403113e-38
3422.1899 649.28101 -433.09399 1.8403113e-38
1298.91 -1746.14 -421.547 1.8403113e-38
1319.01 -1724.4301 -421.888 1.8403113e-38
1357.08 -1679.33 -421.58301 1.8403113e-38
1362.9301 -1669.67 -420.88199 1.8403113e-38
1377.08 -1664.36 -423.50201 1.8403113e-38
1394.96 -1642.63 -423.22699 1.8403113e-38
1411.1801 -1617.01 -421.56699 1.8403113e-38
1428.03 -1595.8199 -421.14001 1.8403113e-38
1435.59 -1593.86 -422.74799 1.8403113e-38
1446.65 -1581.72 -422.88901 1.8403113e-38
1451.77 -1572.33 -422.05499 1.8403113e-38
1463.6801 -1563.75 -423.27802 1.8403113e-38
1468.63 -1554.23 -422.367 1.8403113e-38
1480.9 -1547.36 -424.095 1.8403113e-38
1483.35 -1531.47 -420.97699 1.8403113e-38
1493.6 -1520.08 -421.07401 1.8403113e-38
1502.6801 -1521.87 -423.995 1.8403113e-38
1511.95 -1508.63 -423.38199 1.8403113e-38
1515.27 -1496.14 -421.31201 1.8403113e-38
1530.0699 -1496.89 -425.55899 1.8403113e-38
1531.3199 -1479.9399 -421.854 1.8403113e-38
1545.63 -1479.67 -425.72299 1.8403113e-38
1547.77 -1465.26 -422.87 1.8403113e-38
1561.5699 -1463.99 -426.35901 1.8403113e-38
1564.71 -1452.0699 -424.37701 1.8403113e-38
1576.3101 -1446.4 -426.20901 1.8403113e-38
1577.97 -1431.86 -423.194 1.8403113e-38
1593.23 -1433.7 -427.82599 1.8403113e-38
1593.8 -1417.4 -424.09299 1.8403113e-38
1606.3 -1414.08 -426.73401 1.8403113e-38
1610.23 -1404.39 -425.50201 1.8403113e-38
1620.27 -1396.8199 -426.453 1.8403113e-38
1620.28 -1380.47 -422.55301 1.8403113e-38
1636.24 -1383.49 -427.65701 1.8403113e-38
1635.04 -1365.47 -423.026 1.8403113e-38
1650.96 -1368.3 -428.077 1.8403113e-38
1654.48 -1358.28 -426.65302 1.8403113e-38
1664.34 -1351.34 -427.703 1.8403113e-38
1666.6801 -1339.64 -425.55499 1.8403113e-38
1681 -1339.72 -429.508 1.8403113e-38
1679.5 -1322.45 -424.974 1.8403113e-38
1688.34 -1314.65 -425.54099 1.8403113e-38
1694.65 -1308.99 -425.923 1.8403113e-38
1703.29 -1301.13 -426.418 1.8403113e-38
1709 -1294.54 -426.414 1.8403113e-38
1722.49 -1293.42 -429.85501 1.8403113e-38
1723.0699 -1279.88 -426.78101 1.8403113e-38
1731.27 -1271.9301 -427.13501 1.8403113e-38
1738.02 -1266.5 -427.69601 1.8403113e-38
1746.61 -1259.23 -428.32001 1.8403113e-38
1753.35 -1253.61 -428.82999 1.8403113e-38
1755.7 -1239.0699 -426.005 1.8403113e-38
1761.74 -1232.6 -426.12 1.8403113e-38
1776.05 -1232.37 -429.99799 1.8403113e-38
1774 -1216.52 -425.64999 1.8403113e-38
1785.71 -1213.35 -428.10999 1.8403113e-38
1785.9399 -1200.29 -425.05701 1.8403113e-38
1804.0601 -1190.72 -427.74899 1.8403113e-38
1813.58 -1185.28 -429.06699 1.8403113e-38
1819.45 -1178.1 -428.965 1.8403113e-38
1827.25 -1157.99 -426.30701 1.8403113e-38
1839.8199 -1155.67 -429.20901 1.8403113e-38
1854.71 -1136.095 -428.62598 1.8403113e-38
1873.49 -1119.89 -429.91901 1.8403113e-38
2054.6899 -903.31897 -428.00201 1.8403113e-38
2070.8401 -888.49298 -428.90302 1.8403113e-38
2086.8201 -873.276 -429.66 1.8403113e-38
2093.9099 -853.98199 -427.00201 1.8403113e-38
2114.6899 -840.26703 -429.43799 1.8403113e-38
2127.3899 -822.94598 -428.793 1.8403113e-38
2135.78 -816.81702 -429.63501 1.8403113e-38
2141.6201 -805.98401 -428.65302 1.8403113e-38
2148.98 -799.42297 -429.10699 1.8403113e-38
2160.1001 -790.20398 -429.96301 1.8403113e-38
2164.6201 -782.612 -429.392 1.8403113e-38
2172.0701 -771.901 -428.883 1.8403113e-38
2192.48 -746.99597 -428.54599 1.8403113e-38
2195.1799 -734.48999 -426.302 1.8403113e-38
2216.4199 -718.02899 -428.20801 1.8403113e-38
2233.78 -700.05603 -428.68701 1.8403113e-38
2236.5 -691.96503 -427.50201 1.8403113e-38
2255.3 -673.84399 -428.34299 1.8403113e-38
2268.7 -662.854 -429.39999 1.8403113e-38
2275.74 -655.54303 -429.59 1.8403113e-38
2286.25 -643.60101 -429.625 1.8403113e-38
2319.5801 -603.44702 -429.19901 1.8403113e-38
532.26599 -2588.8101 -412.069 1.8403113e-38
585.05798 -2527.45 -411.92599 1.8403113e-38
604.77002 -2497.8899 -410.28601 1.8403113e-38
633.61603 -2474.6699 -412.66901 1.8403113e-38
650.047 -2456.22 -412.77899 1.8403113e-38
678.97699 -2427.72 -413.923 1.8403113e-38
696.54102 -2399.1899 -411.94 1.8403113e-38
723.53198 -2375.0601 -413.595 1.8403113e-38
739.388 -2350.97 -412.20099 1.8403113e-38
764.37 -2333.21 -414.82501 1.8403113e-38
779.21503 -2310.7 -413.52899 1.8403113e-38
805.125 -2280.9099 -413.53699 1.8403113e-38
819.45801 -2256.1001 -411.55301 1.8403113e-38
841.25098 -2250.25 -416.14301 1.8403113e-38
855.29999 -2222.2 -413.30801 1.8403113e-38
877.36298 -2209.22 -416.271 1.8403113e-38
890.54901 -2181.8401 -413.35699 1.8403113e-38
912.32397 -2164.6499 -415.23801 1.8403113e-38
923.68701 -2149.6499 -414.77802 1.8403113e-38
945.03802 -2129.25 -415.77499 1.8403113e-38
956.10699 -2111.0601 -414.47299 1.8403113e-38
976.93103 -2086.49 -414.32999 1.8403113e-38
987.354 -2069.03 -413.02499 1.8403113e-38
1006.72 -2059.8 -416.14301 1.8403113e-38
1016.91 -2035.28 -413.08801 1.8403113e-38
1035.75 -2026.78 -416.23801 1.8403113e-38
1045.37 -1998.15 -412.04501 1.8403113e-38
1063.6801 -1994.29 -416.15399 1.8403113e-38
1072.64 -1971.3 -413.12601 1.8403113e-38
1090.45 -1955.5601 -414.263 1.8403113e-38
1098.9399 -1940.15 -412.91699 1.8403113e-38
1116.26 -1927.12 -414.56601 1.8403113e-38
1124.29 -1910.55 -412.819 1.8403113e-38
1141.46 -1905.1 -416.23401 1.8403113e-38
1149.29 -1891.25 -415.078 1.8403113e-38
1166.04 -1883.66 -417.86801 1.8403113e-38
1172.76 -1859.01 -413.83099 1.8403113e-38
1189.39 -1855.11 -417.46799 1.8403113e-38
1196.6899 -1842.84 -416.54599 1.8403113e-38
1211.63 -1824.33 -416.23099 1.8403113e-38
1218.98 -1815.75 -416.203 1.8403113e-38
1235.05 -1811.49 -419.60001 1.8403113e-38
1241.28 -1795.0699 -417.392 1.8403113e-38
1255.77 -1781.08 -418.034 1.8403113e-38
1263.09 -1775.03 -418.60199 1.8403113e-38
1277.29 -1761.86 -419.36099 1.8403113e-38
1283.23 -1748.03 -417.689 1.8403113e-38
1304.59 -1732.16 -419.76999 1.8403113e-38
1324.38 -1710.33 -419.99701 1.8403113e-38
1336.71 -1694.01 -419.487 1.8403113e-38
1343.33 -1687.3101 -419.70901 1.8403113e-38
1379.67 -1642.48 -418.992 1.8403113e-38
1396.61 -1618.85 -418.004 1.8403113e-38
1415.3 -1603.29 -419.42499 1.8403113e-38
-133.991 -3318.8899 -403.297 1.8403113e-38
-87.797897 -3258.6101 -401.59799 1.8403113e-38
-32.561901 -3204.6101 -403.883 1.8403113e-38
8.3817301 -3151.46 -402.444 1.8403113e-38
55.9837 -3111.1201 -405.89401 1.8403113e-38
94.178299 -3059.73 -404.12 1.8403113e-38
143.13699 -3009.99 -405.698 1.8403113e-38
179.586 -2957.6201 -403.20999 1.8403113e-38
222.508 -2919.05 -405.797 1.8403113e-38
252.625 -2879.8799 -404.72 1.8403113e-38
293.45801 -2842.3501 -406.98099 1.8403113e-38
322.25699 -2802.4199 -405.36099 1.8403113e-38
357.04999 -2779.25 -409.38901 1.8403113e-38
386.03101 -2733.8799 -406.52301 1.8403113e-38
420.78101 -2706.24 -409.47101 1.8403113e-38
447.07001 -2664.95 -406.83701 1.8403113e-38
479.85999 -2639.52 -409.77499 1.8403113e-38
499.97299 -2616.72 -409.85901 1.8403113e-38
555.03302 -2551.1299 -409.32901 1.8403113e-38
2370.9399 -446.965 -405.95499 1.8403113e-38
3279.0701 601.758 -405.11899 1.8403113e-38
-188.571 -3365.22 -399.35999 1.8403113e-38
3339.8401 723.70697 -392.70401 1.8403113e-38
2295.1899 -437.815 -382.95801 1.8403113e-38
3075.47 466.815 -381.39099 1.8403113e-38
3250 632.98297 -389.677 1.8403113e-38
3239.79 701.34998 -370.552 1.8403113e-38
-77.946503 -3059.7 -356.823 1.8403113e-38
3181.6899 688.474 -357.66299 1.8403113e-38
-100.496 -3036.98 -345.203 1.8403113e-38
2182.73 -423.10999 -348.54999 1.8403113e-38
2161.5601 -416.841 -341.23599 1.8403113e-38
2764.8899 250.312 -347.742 1.8403113e-38
2776.8899 266.737 -347.116 1.8403113e-38
2784.97 291.88901 -343.33401 1.8403113e-38
2790.1599 305.995 -341.39301 1.8403113e-38
2838.6101 349.203 -344.38901 1.8403113e-38
3114.02 680.172 -341.052 1.8403113e-38
-106.595 -3007.48 -336.48499 1.8403113e-38
2139.46 -404.00699 -332.10001 1.8403113e-38
2133.52 -398.255 -329.09399 1.8403113e-38
2119.6001 -380.117 -320.94 1.8403113e-38
3059.97 667.16901 -329.30399 1.8403113e-38
3055.27 691.72101 -322.15399 1.8403113e-38
-78.935501 -2878.1101 -313.20099 1.8403113e-38
2105.4399 -386.17499 -318.496 1.8403113e-38
2102.9399 -368.02899 -313.478 1.8403113e-38
3042.0601 700.427 -316.44501 1.8403113e-38
3043.8799 728.92603 -310.142 1.8403113e-38
3093.6799 774.79303 -312.875 1.8403113e-38
-71.325897 -2823.72 -302.30801 1.8403113e-38
2091.8201 -363.27899 -309.289 1.8403113e-38
2081.77 -351.21301 -303.64801 1.8403113e-38
2074.3601 -346.647 -300.521 1.8403113e-38
3066.6799 787.01599 -302.53799 1.8403113e-38
2066.1699 -332.23349 -294.83099 1.8403113e-38
3063.79 802.24103 -298.11099 1.8403113e-38
3055.22 825.56201 -290.18799 1.8403113e-38
-80.136497 -2777.8 -288.92499 1.8403113e-38
2055.4351 -315.811 -287.96051 1.8403113e-38
2049.3 -301.487 -282.85501 1.8403113e-38
3056.1499 843.37701 -286.19199 1.8403113e-38
2038.5601 -298.22198 -279.125 1.8403113e-38
2038.27 -281.16199 -274.97299 1.8403113e-38
2043.36 -284.952 -277.27802 1.8403113e-38
2033.3 -269.22 -270.75601 1.8403113e-38
3060.53 875.35901 -279.76099 1.8403113e-38
3063.45 894.95203 -275.88599 1.8403113e-38
-56.612999 -2635.3501 -261.384 1.8403113e-38
2026.15 -265.996 -268.022 1.8403113e-38
2025.84 -253.34 -264.91699 1.8403113e-38
2027.2 -248.814 -264.20999 1.8403113e-38
2029.87 -231.203 -260.73901 1.8403113e-38
2041.12 -233.34599 -264.341 1.8403113e-38
3039.1201 908.38599 -265.99399 1.8403113e-38
3047.3899 931.85901 -262.66299 1.8403113e-38
-74.129204 -2637.55 -257.09698 1.8403113e-38
2033.605 -215.334 -257.97699 1.8403113e-38
2033.35 -200.12399 -254.276 1.8403113e-38
2027.59 -197.22701 -252.002 1.8403113e-38
3044.9099 960.34399 -255.18201 1.8403113e-38
-118.683 -2633.45 -243.877 1.8403113e-38
-99.709198 -2629.05 -248.039 1.8403113e-38
2031.41 -183.106 -249.67999 1.8403113e-38
2031.22 -178.94299 -248.63499 1.8403113e-38
2034.21 -162.6895 -245.57651 1.8403113e-38
2037.02 -146.27901 -242.42999 1.8403113e-38
2048.78 -138.63699 -243.836 1.8403113e-38
2050.1201 -124.436 -240.817 1.8403113e-38
2052.27 -119.418 -240.21001 1.8403113e-38
2167.24 -6.2937002 -244.791 1.8403113e-38
2198.76 11.3785 -249.23399 1.8403113e-38
3030.6201 968.521 -249.304 1.8403113e-38
3030.1101 998.797 -241.937 1.8403113e-38
2058.1101 -103.582 -238.033 1.8403113e-38
2058.21 -99.115799 -236.994 1.8403113e-38
2075.01 -79.2696 -236.873 1.8403113e-38
2080.49 -72.767403 -236.826 1.8403113e-38
2103.46 -50.0368 -237.71001 1.8403113e-38
2108.6699 -43.2309 -237.519 1.8403113e-38
3021.1799 1010.83 -236.61099 1.8403113e-38
3071.26 1079.4301 -233.994 1.8403113e-38
3226.22 1273.67 -230.201 1.8403113e-38
3350.52 1408.39 -232.19 1.8403113e-38
3055.3 1086.9301 -227.819 1.8403113e-38
3073.98 1133.6899 -221.787 1.8403113e-38
3352.8799 1434.97 -226.496 1.8403113e-38
-31.0714 -2418.23 -216.57001 1.8403113e-38
-37.2658 -2403.02 -211.237 1.8403113e-38
3356.3401 1475.7 -217.72301 1.8403113e-38
3360.23 1504.4399 -211.93201 1.8403113e-38
-55.000301 -2384.25 -201.886 1.8403113e-38
3354.46 1538.4301 -202.233 1.8403113e-38
-75.758598 -2394.79 -198.698 1.8403113e-38
3357.5801 1567.36 -196.183 1.8403113e-38
-91.770401 -2373.1599 -189.134 1.8403113e-38
-65.751198 -2305.47 -180.12399 1.8403113e-38
3356.3301 1606.16 -186.57899 1.8403113e-38
3360.8601 1637.3199 -180.386 1.8403113e-38
3359.49 1677.09 -170.51601 1.8403113e-38
-53.0308 -2216.9199 -162.48199 1.8403113e-38
3366.8101 1711.92 -164.21001 1.8403113e-38
-53.767899 -2174.52 -152.158 1.8403113e-38
3363.0701 1750.64 -153.94 1.8403113e-38
-59.380199 -2162.74 -147.80299 1.8403113e-38
3360.77 1777.49 -146.89799 1.8403113e-38
-49.227798 -2105.5601 -136.94299 1.8403113e-38
-48.572201 -2085.5701 -132.35001 1.8403113e-38
3383.6399 1873.63 -130.233 1.8403113e-38
3423.45 1882.03 -139.162 1.8403113e-38
-43.2229 -2037.99 -122.462 1.8403113e-38
-38.896301 -2014.0699 -117.942 1.8403113e-38
3342.8101 1877.48 -118.094 1.8403113e-38
-56.635201 -2001.16 -109.987 1.8403113e-38
-63.376301 -1993.54 -106.315 1.8403113e-38
-93.4123 -1980.6 -94.972603 1.8403113e-38
-87.427299 -1989.26 -98.685303 1.8403113e-38
-124.131 -1984.6899 -87.508904 1.8403113e-38
715.81799 -851.34698 -47.7393 1.8403113e-38
716.28003 -848.909 -47.284302 1.8403113e-38
715.82898 -836.30701 -44.152199 1.8403113e-38
723.96997 -812.31702 -40.661999 1.8403113e-38
