# .PCD v0.7 - Point Cloud Data file format
VERSION 0.7
FIELDS x y z rgb
SIZE 4 4 4 4
TYPE F F F F
COUNT 1 1 1 1
WIDTH 330
HEIGHT 1
VIEWPOINT 0 0 0 1 0 0 0
POINTS 330
DATA ascii
562.065 -895.04102 -289.57199 1.8403113e-38
556.31702 -872.34998 -283.01401 1.8403113e-38
561.38898 -862.62799 -282.41901 1.8403113e-38
566.35498 -852.88898 -281.789 1.8403113e-38
572.479 -844.53101 -281.797 1.8403113e-38
581.07703 -838.90302 -283.117 1.8403113e-38
583.83801 -827.01703 -281.379 1.8403113e-38
592.31598 -821.27301 -282.63901 1.8403113e-38
597.47498 -812.07703 -282.18301 1.8403113e-38
605.19299 -805.52802 -283.047 1.8403113e-38
615.32849 -794.24847 -283.60699 1.8403113e-38
623.29401 -780.91498 -283.08899 1.8403113e-38
623.90601 -767.71002 -280.435 1.8403113e-38
637.21899 -752.79999 -281.14999 1.8403113e-38
641.66901 -743.39502 -280.44101 1.8403113e-38
658.87701 -731.85101 -283.02399 1.8403113e-38
663.73151 -716.3515 -281.12549 1.8403113e-38
673.47803 -705.00403 -281.55701 1.8403113e-38
685.66949 -695.53748 -283.10999 1.8403113e-38
696.29401 -684.758 -283.92099 1.8403113e-38
698.534 -673.927 -282.25601 1.8403113e-38
710.52399 -670.31799 -285.00699 1.8403113e-38
715.65302 -661.62598 -284.64999 1.8403113e-38
716.85797 -650.20203 -282.55301 1.8403113e-38
723.35498 -642.54401 -282.82101 1.8403113e-38
731.35303 -635.87598 -283.742 1.8403113e-38
744.01703 -632.22803 -286.68201 1.8403113e-38
747.23199 -622.27301 -285.492 1.8403113e-38
746.38098 -609.79901 -282.565 1.8403113e-38
760.55298 -606.82703 -286.09399 1.8403113e-38
771.54602 -601.69299 -288.22501 1.8403113e-38
771.22601 -589.67297 -285.552 1.8403113e-38
780.51703 -583.40198 -286.93799 1.8403113e-38
781.61401 -572.349 -284.89001 1.8403113e-38
790.80499 -565.91998 -286.21201 1.8403113e-38
795.01599 -556.66602 -285.465 1.8403113e-38
803.29199 -549.60602 -286.384 1.8403113e-38
811.52802 -542.44598 -287.26901 1.8403113e-38
815.53497 -533.04401 -286.42999 1.8403113e-38
820.29999 -524.03998 -285.89899 1.8403113e-38
832.604 -518.71503 -288.37399 1.8403113e-38
835.55499 -508.75601 -287.10501 1.8403113e-38
838.414 -498.79199 -285.80801 1.8403113e-38
842.89697 -489.603 -285.15399 1.8403113e-38
854.19299 -483.43201 -287.15201 1.8403113e-38
857.68701 -473.737 -286.099 1.8403113e-38
865.43799 -465.854 -286.68701 1.8403113e-38
873.14001 -457.875 -287.23901 1.8403113e-38
876.41302 -448.04901 -286.09299 1.8403113e-38
885.75299 -440.60199 -287.242 1.8403113e-38
888.87598 -430.689 -286.03299 1.8403113e-38
885.71301 -418.48001 -282.48401 1.8403113e-38
903.75299 -414.00101 -286.827 1.8403113e-38
909.32397 -404.896 -286.51099 1.8403113e-38
913.03497 -395.12701 -285.50601 1.8403113e-38
917.56201 -385.62399 -284.79901 1.8403113e-38
928.32202 -378.07599 -286.34299 1.8403113e-38
930.90802 -367.87601 -284.91501 1.8403113e-38
933.40503 -357.66599 -283.45801 1.8403113e-38
944.909 -350.056 -285.20801 1.8403113e-38
951.81598 -341.01001 -285.298 1.8403113e-38
956.82898 -331.38699 -284.707 1.8403113e-38
967.27197 -323.12299 -286.005 1.8403113e-38
968.46997 -312.42899 -284.06201 1.8403113e-38
983.40601 -305.035 -286.867 1.8403113e-38
988.14502 -295.08401 -286.12601 1.8403113e-38
996.51398 -285.89001 -286.61401 1.8403113e-38
999.24597 -275.41 -285.16901 1.8403113e-38
1010.27 -266.58499 -286.51599 1.8403113e-38
1004.44 -254.397 -282.18799 1.8403113e-38
1024.6801 -247.076 -286.56699 1.8403113e-38
1021.47 -235.403 -283.11899 1.8403113e-38
1030.35 -225.795 -283.66901 1.8403113e-38
1041.05 -216.341 -284.78699 1.8403113e-38
1046.03 -205.909 -284.01401 1.8403113e-38
1050.9399 -195.414 -283.203 1.8403113e-38
1056.7 -184.97301 -282.65799 1.8403113e-38
1075.64 -175.99001 -286.29901 1.8403113e-38
1072.73 -164.36 -282.94699 1.8403113e-38
1085.85 -154.383 -284.66501 1.8403113e-38
1090.35 -143.43401 -283.63901 1.8403113e-38
1092.86 -132.274 -281.98099 1.8403113e-38
1102.89 -121.627 -282.64899 1.8403113e-38
1109.99 -110.643 -282.38 1.8403113e-38
1117.96 -99.601501 -282.354 1.8403113e-38
1130.63 -88.6437 -283.72699 1.8403113e-38
1131.73 -77.078903 -281.57101 1.8403113e-38
1141.36 -65.732101 -281.966 1.8403113e-38
1149.9399 -54.212898 -282.017 1.8403113e-38
1157.47 -42.547699 -281.728 1.8403113e-38
1166.83 -30.76 -281.95099 1.8403113e-38
1187.61 -18.703501 -285.474 1.8403113e-38
1192.9399 -6.5792499 -284.44101 1.8403113e-38
1192.41 5.46842 -281.70001 1.8403113e-38
1200.4301 17.8132 -281.40799 1.8403113e-38
1229.6 43.6325 -284.44699 1.8403113e-38
1226.74 55.823002 -280.98901 1.8403113e-38
1245.87 69.551102 -283.66901 1.8403113e-38
1269.6899 84.0019 -287.573 1.8403113e-38
1281.87 97.833 -288.186 1.8403113e-38
1269.9301 109.503 -282.17001 1.8403113e-38
1285.72 123.957 -283.71201 1.8403113e-38
1287.95 137.121 -281.54401 1.8403113e-38
1307.34 152.49001 -283.94601 1.8403113e-38
1317 166.91299 -283.69299 1.8403113e-38
1326.54 181.507 -283.367 1.8403113e-38
1337.86 196.563 -283.466 1.8403113e-38
1350.01 211.97501 -283.73099 1.8403113e-38
1360.11 227.27901 -283.41599 1.8403113e-38
1371.02 242.938 -283.26501 1.8403113e-38
1386.5601 259.69101 -284.23999 1.8403113e-38
1395.28 275.41 -283.42999 1.8403113e-38
1406.7 291.87799 -283.25601 1.8403113e-38
1425.58 310.194 -284.87601 1.8403113e-38
1438.58 327.573 -284.97101 1.8403113e-38
1431.53 340.54401 -280.11401 1.8403113e-38
628.513 -758.37598 -279.78699 1.8403113e-38
646.02399 -733.97601 -279.70099 1.8403113e-38
1201.61 29.9844 -279.14499 1.8403113e-38
1424.37 353.40201 -275.24899 1.8403113e-38
1411.4301 364.72101 -269.01801 1.8403113e-38
1408.78 378.53601 -265.27499 1.8403113e-38
1404.13 391.81 -261.05899 1.8403113e-38
485.20401 -818.29602 -250.508 1.8403113e-38
1408.76 407.647 -259.02301 1.8403113e-38
1401.99 420.32999 -254.311 1.8403113e-38
1378.27 427.88699 -245.716 1.8403113e-38
1381.6 443.383 -243.37 1.8403113e-38
1331.67 442.112 -228.963 1.8403113e-38
1157.24 399.29901 -186.86501 1.8403113e-38
1130.0601 402.724 -178.13699 1.8403113e-38
1115.84 410.172 -172.35899 1.8403113e-38
1115.4301 422.31201 -169.634 1.8403113e-38
1115.83 434.80099 -167.071 1.8403113e-38
1117.9399 448.00699 -164.86 1.8403113e-38
1106.2 455.99301 -159.69299 1.8403113e-38
296.35901 -600.19299 -148.192 1.8403113e-38
277.72299 -587.58002 -140.007 1.8403113e-38
1009.48 430.323 -136.763 1.8403113e-38
955.37097 431.14099 -120.68 1.8403113e-38
983.30701 431.323 -128.855 1.8403113e-38
225.101 -530.76398 -112.345 1.8403113e-38
937.453 434.71701 -114.645 1.8403113e-38
-456.62 -1411.96 -100.969 1.8403113e-38
211.425 -522.474 -106.546 1.8403113e-38
909.617 433.69901 -106.679 1.8403113e-38
-496.392 -1426.04 -92.295403 1.8403113e-38
-484.59601 -1428.23 -96.233101 1.8403113e-38
-471.06699 -1422.58 -98.998901 1.8403113e-38
870.30798 437.617 -94.281097 1.8403113e-38
885.453 433.82001 -99.548798 1.8403113e-38
-535.94598 -1435.13 -82.616402 1.8403113e-38
-510.06699 -1431.4399 -89.433296 1.8403113e-38
-521.87701 -1429.02 -85.443298 1.8403113e-38
849.81 449.14801 -85.780502 1.8403113e-38
853.37598 440.34698 -88.717201 1.8403113e-38
847.05402 458.34299 -82.997498 1.8403113e-38
2039.04 2060.5 -89.718697 1.8403113e-38
-547.77399 -1432.49 -78.572197 1.8403113e-38
-571.06097 -1425.9301 -70.318703 1.8403113e-38
-559.30103 -1428.78 -74.388397 1.8403113e-38
77.6269 -540.62903 -71.1026 1.8403113e-38
95.314499 -541.68799 -76.530098 1.8403113e-38
83.91655 -536.10199 -71.980545 1.8403113e-38
95.4002 -525.16553 -73.010498 1.8403113e-38
157.09801 -459.603 -77.084297 1.8403113e-38
143.166 -448.979 -70.708702 1.8403113e-38
836.26202 463.57401 -78.702301 1.8403113e-38
815.487 474.008 -70.355301 1.8403113e-38
830.72803 471.31799 -75.413696 1.8403113e-38
1997.02 2054.7 -78.608398 1.8403113e-38
-596.841 -1427.49 -63.074501 1.8403113e-38
-582.78998 -1422.97 -66.235298 1.8403113e-38
46.278049 -537.88196 -61.29615 1.8403113e-38
55.338852 -533.96851 -63.120499 1.8403113e-38
69.5215 -535.24597 -67.564499 1.8403113e-38
61.535599 -529.75201 -64.037903 1.8403113e-38
87.867104 -495.40302 -64.410202 1.8403113e-38
91.960999 -492.90302 -65.0774 1.8403113e-38
97.711197 -483.69199 -64.791901 1.8403113e-38
89.9459 -479.63501 -61.6385 1.8403113e-38
95.913399 -471.31601 -61.608101 1.8403113e-38
107.157 -471.811 -65.020302 1.8403113e-38
97.843597 -465.51099 -60.930302 1.8403113e-38
115.062 -462.31799 -65.307495 1.8403113e-38
117.375 -453.108 -64.011703 1.8403113e-38
126.726 -454.44299 -67.047256 1.8403113e-38
136.71301 -452.21249 -69.505051 1.8403113e-38
814.23401 483.83499 -67.8787 1.8403113e-38
813.75598 494.13599 -65.527901 1.8403113e-38
814.03998 504.93301 -63.2952 1.8403113e-38
815.07703 516.24701 -61.1726 1.8403113e-38
1602.3101 1591.11 -62.019798 1.8403113e-38
1961.63 2054.6101 -68.223701 1.8403113e-38
-610.987 -1431.88 -59.855598 1.8403113e-38
-634.15002 -1424.2 -51.399502 1.8403113e-38
-622.125 -1426.6801 -55.465401 1.8403113e-38
14.36565 -535.9975 -51.509247 1.8403113e-38
24.32905 -535.36304 -54.302551 1.8403113e-38
35.5951 -537.63 -58.101151 1.8403113e-38
101.976 -454.72101 -59.830101 1.8403113e-38
816.85303 528.099 -59.1521 1.8403113e-38
814.22699 537.52197 -56.358398 1.8403113e-38
816.61798 549.96301 -54.3922 1.8403113e-38
818.02502 561.96399 -52.230999 1.8403113e-38
1932.03 2059.6899 -58.43 1.8403113e-38
-662.146 -1430.17 -44.448502 1.8403113e-38
-674.20203 -1427.34 -40.2957 1.8403113e-38
-647.45898 -1425.38 -47.738499 1.8403113e-38
-23.250601 -533.97101 -40.0149 1.8403113e-38
-14.52575 -539.02649 -43.664551 1.8403113e-38
-3.49897 -534.92798 -46.027199 1.8403113e-38
3.5358348 -533.70898 -47.834099 1.8403113e-38
-10.7372 -527.427 -42.289902 1.8403113e-38
813.39899 570.383 -49.0648 1.8403113e-38
817.92999 584.55402 -47.356499 1.8403113e-38
815.61499 594.56201 -44.528702 1.8403113e-38
809.87799 602.39899 -41.160301 1.8403113e-38
1484.26 1507.86 -45.173 1.8403113e-38
1896.87 2058.71 -48.301399 1.8403113e-38
-688.68298 -1430.91 -36.805801 1.8403113e-38
-700.38898 -1426.91 -32.5047 1.8403113e-38
-50.956902 -536.71002 -32.456402 1.8403113e-38
-43.821198 -537.1015 -34.638401 1.8403113e-38
-35.053902 -534.36249 -36.628349 1.8403113e-38
-27.6327 -535.46503 -39.047001 1.8403113e-38
811.51398 615.11102 -38.914101 1.8403113e-38
813.008 627.88702 -36.612202 1.8403113e-38
816.81097 642.41302 -34.613899 1.8403113e-38
818.00299 655.33301 -32.192299 1.8403113e-38
1861.84 2057.27 -38.314201 1.8403113e-38
-714.97601 -1430.21 -28.9242 1.8403113e-38
-740.20801 -1426.23 -20.6516 1.8403113e-38
-725.91602 -1424.12 -24.4018 1.8403113e-38
-91.9674 -537.914 -20.657101 1.8403113e-38
-85.267044 -537.46997 -22.531799 1.8403113e-38
-76.610703 -534.99146 -24.545101 1.8403113e-38
-65.711403 -532.42798 -27.199633 1.8403113e-38
-56.765301 -531.35303 -29.5994 1.8403113e-38
820.66602 669.46503 -29.943399 1.8403113e-38
821.55499 682.51501 -27.4049 1.8403113e-38
815.89697 690.89801 -23.942699 1.8403113e-38
816.52502 704.00299 -21.315901 1.8403113e-38
1820.76 2048.8601 -28.040899 1.8403113e-38
-769.37701 -1430.91 -13.0802 1.8403113e-38
-754.95203 -1429.11 -16.9338 1.8403113e-38
-291.604 -789.42603 -15.9225 1.8403113e-38
-283.923 -782.349 -16.662399 1.8403113e-38
-103.424 -535.70599 -16.814899 1.8403113e-38
-97.371201 -531.10699 -17.608 1.8403113e-38
-113.486 -524.1825 -11.3842 1.8403113e-38
817.79401 717.763 -18.7367 1.8403113e-38
818.11603 730.97803 -15.9964 1.8403113e-38
817.50598 743.62402 -13.1038 1.8403113e-38
815.97699 755.67902 -10.0676 1.8403113e-38
1787.46 2047.9 -18.455 1.8403113e-38
-811.758 -1432.72 -1.00736 1.8403113e-38
-798.82098 -1434.99 -5.2974401 1.8403113e-38
-781.039 -1426.1899 -8.6380796 1.8403113e-38
-262.79099 -685.49597 -2.09586 1.8403113e-38
-255.425 -673.328 -1.65117 1.8403113e-38
-244.84601 -655.43103 -0.9217695 1.8403113e-38
-234.4295 -658.08997 -4.5547252 1.8403113e-38
-224.864 -642.841 -4.0956998 1.8403113e-38
-218.76199 -633.25598 -3.8331399 1.8403113e-38
-213.228 -628.51501 -4.4430299 1.8403113e-38
-204.7485 -616.4115 -4.3392701 1.8403113e-38
-194.2775 -607.63049 -5.5341101 1.8403113e-38
-183.89801 -592.31104 -5.2989149 1.8403113e-38
-176.549 -585.24799 -5.9443898 1.8403113e-38
-171.686 -576.24701 -5.4430799 1.8403113e-38
-164.69 -574.89905 -7.21071 1.8403113e-38
-155.47751 -568.409 -8.5267849 1.8403113e-38
-149.12801 -548.32501 -6.0847802 1.8403113e-38
-145.203 -534.25897 -4.22085 1.8403113e-38
-120.209 -521.32703 -8.7948704 1.8403113e-38
-127.16 -513.99451 -5.1782951 1.8403113e-38
-133.739 -509.478 -2.2750399 1.8403113e-38
811.22998 765.23297 -6.6223001 1.8403113e-38
801.02698 770.29303 -2.53703 1.8403113e-38
812.10303 793.242 -0.86987102 1.8403113e-38
1759.03 2051.6399 -9.2933102 1.8403113e-38
-838.91803 -1430.5 7.4544101 1.8403113e-38
-827.24799 -1435.74 2.8994901 1.8403113e-38
-306.79401 -734.63202 0.29942101 1.8403113e-38
-276.311 -666.14203 6.0313401 1.8403113e-38
-279.33899 -652.81897 9.7799397 1.8403113e-38
-142.23 -504.59399 1.2697099 1.8403113e-38
-138.43401 -499.27301 1.29501 1.8403113e-38
790.37903 788.48297 4.49649 1.8403113e-38
816.06299 824.745 4.7248502 1.8403113e-38
828.55499 850.22498 6.5186901 1.8403113e-38
1723.28 2046.9 0.20258699 1.8403113e-38
1695.7 2050.6299 9.1117001 1.8403113e-38
-883.19702 -1432.8 19.978701 1.8403113e-38
-868.38702 -1432.1899 15.7556 1.8403113e-38
-853.62701 -1431.42 11.5808 1.8403113e-38
-283.465 -646.26801 12.3987 1.8403113e-38
796.30798 835.83899 12.9132 1.8403113e-38
1666.1899 2051.78 18.031799 1.8403113e-38
-920.02301 -1446.77 27.8104 1.8403113e-38
-900.37299 -1437.6801 23.9823 1.8403113e-38
1638.74 2054.8201 26.7565 1.8403113e-38
-940.34198 -1456.49 31.6973 1.8403113e-38
-938.05298 -1424.9399 37.7948 1.8403113e-38
1604.87 2049.9099 35.660599 1.8403113e-38
-945.13702 -1410.88 42.892502 1.8403113e-38
-948.03302 -1389.88 48.251598 1.8403113e-38
1576.96 2051.47 44.200901 1.8403113e-38
-946.57098 -1362.01 53.800499 1.8403113e-38
-945.72101 -1335.96 59.139599 1.8403113e-38
1542.79 2044.97 52.853699 1.8403113e-38
-943.96503 -1309.15 64.375603 1.8403113e-38
-944.979 -1287.53 69.311401 1.8403113e-38
1400.74 1904.26 64.428703 1.8403113e-38
-946.21698 -1266.8199 74.119202 1.8403113e-38
-946.61603 -1245.3199 78.849297 1.8403113e-38
1400.4301 1936.7 71.478996 1.8403113e-38
1452.01 2036.22 77.666702 1.8403113e-38
-946.15802 -1223.05 83.492302 1.8403113e-38
-947.60101 -1204.1801 87.964401 1.8403113e-38
1431.99 2045.5 85.542503 1.8403113e-38
-952.15503 -1190.3199 92.276901 1.8403113e-38
-947.41699 -1163.3 96.680397 1.8403113e-38
1397.46 2035.42 93.5336 1.8403113e-38
-950.92297 -1148.6899 100.846 1.8403113e-38
-949.57202 -1127.59 104.976 1.8403113e-38
-947.92102 -1106.58 109 1.8403113e-38
1294.04 1931.76 101.699 1.8403113e-38
1282.61 1950.12 109 1.8403113e-38
