# .PCD v0.7 - Point Cloud Data file format
VERSION 0.7
FIELDS x y z rgb
SIZE 4 4 4 4
TYPE F F F F
COUNT 1 1 1 1
WIDTH 332
HEIGHT 1
VIEWPOINT 0 0 0 1 0 0 0
POINTS 332
DATA ascii
562.672 -895.76202 -289.905 1.8403113e-38
556.31702 -872.34998 -283.01401 1.8403113e-38
561.38898 -862.62799 -282.41901 1.8403113e-38
566.98102 -853.59302 -282.125 1.8403113e-38
574.37701 -846.625 -282.80399 1.8403113e-38
581.07703 -838.90302 -283.117 1.8403113e-38
590.28998 -833.875 -284.74701 1.8403113e-38
593.61902 -822.633 -283.314 1.8403113e-38
597.47498 -812.07703 -282.18301 1.8403113e-38
605.85602 -806.19501 -283.38501 1.8403113e-38
615.66602 -794.57599 -283.77649 1.8403113e-38
622.61298 -780.26703 -282.74899 1.8403113e-38
623.90601 -767.71002 -280.435 1.8403113e-38
638.617 -754.05701 -281.83099 1.8403113e-38
648.013 -748.995 -283.508 1.8403113e-38
653.84003 -740.74799 -283.452 1.8403113e-38
661.02502 -733.677 -284.047 1.8403113e-38
661.664 -721.12097 -281.54099 1.8403113e-38
667.96899 -713.383 -281.73499 1.8403113e-38
676.409 -707.35901 -282.92401 1.8403113e-38
682.60199 -699.49701 -283.05801 1.8403113e-38
685.01501 -688.71002 -281.453 1.8403113e-38
692.54999 -681.91803 -282.211 1.8403113e-38
705.31897 -678.97498 -285.33401 1.8403113e-38
711.28302 -670.87201 -285.349 1.8403113e-38
716.41699 -662.17297 -284.992 1.8403113e-38
724.54999 -655.599 -285.97299 1.8403113e-38
731.87201 -648.40198 -286.582 1.8403113e-38
733.69098 -637.453 -284.767 1.8403113e-38
738.52802 -628.60101 -284.29001 1.8403113e-38
748.021 -622.784 -285.83301 1.8403113e-38
755.90503 -615.84198 -286.66199 1.8403113e-38
760.55298 -606.82703 -286.09399 1.8403113e-38
765.92499 -598.271 -285.83801 1.8403113e-38
772.034 -590.15399 -285.89301 1.8403113e-38
782.14099 -584.349 -287.61899 1.8403113e-38
782.43103 -572.815 -285.23001 1.8403113e-38
787.52197 -564.08398 -284.853 1.8403113e-38
795.841 -557.117 -285.80399 1.8403113e-38
804.95099 -550.49402 -287.06201 1.8403113e-38
806.526 -539.83002 -285.237 1.8403113e-38
818.04797 -534.32898 -287.44501 1.8403113e-38
822.82599 -525.302 -286.91199 1.8403113e-38
825.836 -515.41101 -285.67499 1.8403113e-38
828.75598 -505.51401 -284.41 1.8403113e-38
839.26801 -499.189 -286.14401 1.8403113e-38
843.75403 -489.992 -285.48999 1.8403113e-38
855.05499 -483.814 -287.487 1.8403113e-38
857.68701 -473.737 -286.099 1.8403113e-38
866.30701 -466.22 -287.021 1.8403113e-38
874.88397 -458.591 -287.90601 1.8403113e-38
878.164 -448.74899 -286.758 1.8403113e-38
885.75299 -440.60199 -287.242 1.8403113e-38
890.64099 -431.35699 -286.69501 1.8403113e-38
892.79901 -421.08801 -285.12701 1.8403113e-38
904.64203 -414.319 -287.15601 1.8403113e-38
910.216 -405.20599 -286.84 1.8403113e-38
913.92999 -395.42899 -285.83401 1.8403113e-38
917.56201 -385.62399 -284.79901 1.8403113e-38
922.91498 -376.36401 -284.38599 1.8403113e-38
931.81201 -368.15302 -285.23999 1.8403113e-38
934.31201 -357.935 -283.78299 1.8403113e-38
946.72803 -350.577 -285.85501 1.8403113e-38
953.64099 -341.51501 -285.94299 1.8403113e-38
955.914 -331.14301 -284.38599 1.8403113e-38
969.10699 -323.595 -286.64499 1.8403113e-38
972.15002 -313.33899 -285.33899 1.8403113e-38
977.87201 -303.71899 -284.95801 1.8403113e-38
990.91901 -295.71701 -287.077 1.8403113e-38
997.44 -286.09201 -286.92999 1.8403113e-38
994.59998 -274.439 -283.59399 1.8403113e-38
1003.75 -265.284 -284.32101 1.8403113e-38
1014.71 -256.349 -285.625 1.8403113e-38
1016.26 -245.554 -283.76599 1.8403113e-38
1024.28 -235.88499 -284.04901 1.8403113e-38
1033.17 -226.252 -284.595 1.8403113e-38
1042.9301 -216.629 -285.401 1.8403113e-38
1046.98 -206.045 -284.32001 1.8403113e-38
1051.88 -195.53999 -283.508 1.8403113e-38
1058.59 -185.209 -283.26501 1.8403113e-38
1068.0601 -175.112 -283.884 1.8403113e-38
1075.5699 -164.664 -283.849 1.8403113e-38
1085.85 -154.383 -284.66501 1.8403113e-38
1090.35 -143.43401 -283.63901 1.8403113e-38
1093.8101 -132.349 -282.27802 1.8403113e-38
1103.85 -121.694 -282.944 1.8403113e-38
1110.95 -110.702 -282.673 1.8403113e-38
1118.92 -99.651703 -282.646 1.8403113e-38
1122.98 -88.310204 -281.40701 1.8403113e-38
1132.6899 -77.112099 -281.85901 1.8403113e-38
1141.36 -65.732101 -281.966 1.8403113e-38
1143.23 -54.100498 -280.021 1.8403113e-38
1161.3101 -42.577702 -282.86301 1.8403113e-38
1168.75 -30.7579 -282.51401 1.8403113e-38
1186.65 -18.7131 -285.194 1.8403113e-38
1196.78 -6.5067 -285.55499 1.8403113e-38
1195.29 5.54846 -282.53101 1.8403113e-38
1195.62 17.636999 -280.03299 1.8403113e-38
1223.84 43.318699 -282.819 1.8403113e-38
1230.58 56.066399 -282.06699 1.8403113e-38
1253.5601 70.106102 -285.81 1.8403113e-38
1269.6899 84.0019 -287.573 1.8403113e-38
1264.58 96.277702 -283.436 1.8403113e-38
1272.8101 109.787 -282.95599 1.8403113e-38
1298.2 125.301 -287.09299 1.8403113e-38
1296.59 138.12801 -283.86801 1.8403113e-38
1305.42 152.24899 -283.43399 1.8403113e-38
1320.83 167.429 -284.70999 1.8403113e-38
1328.45 181.782 -283.871 1.8403113e-38
1331.16 195.54201 -281.715 1.8403113e-38
1340.45 210.43201 -281.25 1.8403113e-38
1362.02 227.605 -283.90799 1.8403113e-38
1364.34 241.74001 -281.55801 1.8403113e-38
1380.84 258.61401 -282.78799 1.8403113e-38
1399.09 276.16101 -284.38901 1.8403113e-38
1408.61 292.271 -283.73199 1.8403113e-38
1426.53 310.39899 -285.112 1.8403113e-38
1432.89 326.29501 -283.57199 1.8403113e-38
1432.48 340.76501 -280.345 1.8403113e-38
628.513 -758.37598 -279.78699 1.8403113e-38
1203.53 30.071899 -279.69199 1.8403113e-38
1427.2 354.091 -275.936 1.8403113e-38
1416.15 365.91101 -270.151 1.8403113e-38
1411.61 379.27399 -265.948 1.8403113e-38
494.211 -829.20398 -255.49699 1.8403113e-38
1396.6 389.77399 -259.28201 1.8403113e-38
1406.88 407.121 -258.58301 1.8403113e-38
1394.49 418.16199 -252.571 1.8403113e-38
1382.95 429.28299 -246.79201 1.8403113e-38
1386.27 444.82001 -244.435 1.8403113e-38
1325.15 440.043 -227.489 1.8403113e-38
1155.38 398.69199 -186.448 1.8403113e-38
1139.33 405.841 -180.19501 1.8403113e-38
1116.77 410.492 -172.563 1.8403113e-38
1112.66 421.328 -169.03101 1.8403113e-38
1116.75 435.13699 -167.269 1.8403113e-38
1115.1899 446.97501 -164.271 1.8403113e-38
1100.7 453.88101 -158.53101 1.8403113e-38
297.547 -601.659 -148.856 1.8403113e-38
274.19901 -583.14899 -138.02 1.8403113e-38
1010.39 430.68301 -136.95399 1.8403113e-38
956.27899 431.51599 -120.867 1.8403113e-38
984.21802 431.69101 -129.04401 1.8403113e-38
229.16499 -535.97302 -114.658 1.8403113e-38
937.453 434.71701 -114.645 1.8403113e-38
-455.388 -1406.16 -100.086 1.8403113e-38
214.295 -526.22302 -108.194 1.8403113e-38
909.617 433.69901 -106.679 1.8403113e-38
-498.69 -1435.67 -93.686501 1.8403113e-38
-484.81699 -1429.1899 -96.374901 1.8403113e-38
-471.28101 -1423.54 -99.143402 1.8403113e-38
872.09998 438.43201 -94.6334 1.8403113e-38
884.55402 433.42001 -99.370102 1.8403113e-38
861.414 444.08099 -90.279503 1.8403113e-38
-522.36902 -1430.9399 -85.710602 1.8403113e-38
-510.30399 -1432.4 -89.569702 1.8403113e-38
-533.91302 -1427.46 -81.569298 1.8403113e-38
851.59003 449.99301 -86.122597 1.8403113e-38
849.71399 459.634 -83.502701 1.8403113e-38
2033.25 2055 -89.196602 1.8403113e-38
-559.84198 -1430.6899 -74.639099 1.8403113e-38
-571.06097 -1425.9301 -70.318703 1.8403113e-38
-545.67603 -1424.83 -77.547203 1.8403113e-38
94.883202 -540.84003 -76.221397 1.8403113e-38
84.544754 -537.38452 -72.4403 1.8403113e-38
95.173355 -524.74799 -72.854248 1.8403113e-38
159.93401 -463.379 -78.728104 1.8403113e-38
142.04601 -447.45801 -70.052803 1.8403113e-38
823.68597 467.75299 -74.108101 1.8403113e-38
840.67999 465.763 -79.531303 1.8403113e-38
826.00897 479.44699 -72.282204 1.8403113e-38
1997.02 2054.7 -78.608398 1.8403113e-38
-585.65302 -1432.48 -67.433098 1.8403113e-38
-597.42999 -1429.39 -63.308399 1.8403113e-38
45.166801 -535.24249 -60.403099 1.8403113e-38
57.2295 -538.349 -64.616196 1.8403113e-38
65.077003 -537.56702 -66.755699 1.8403113e-38
72.5448 -535.79102 -68.570351 1.8403113e-38
91.278793 -496.65448 -65.681747 1.8403113e-38
94.161598 -487.065 -64.471901 1.8403113e-38
100.566 -488.617 -66.687798 1.8403113e-38
98.3284 -475.397 -63.193699 1.8403113e-38
104.9555 -472.716 -64.566948 1.8403113e-38
116.6145 -464.69598 -66.2742 1.8403113e-38
105.003 -459.53101 -61.752201 1.8403113e-38
124.5625 -455.44 -66.625099 1.8403113e-38
138.314 -450.383 -69.583199 1.8403113e-38
120.055 -448.80499 -63.876301 1.8403113e-38
130.73199 -447.87799 -66.816597 1.8403113e-38
815.98102 484.75699 -68.194504 1.8403113e-38
812.88599 493.668 -65.372704 1.8403113e-38
815.77301 505.88501 -63.600399 1.8403113e-38
818.52698 518.17999 -61.7724 1.8403113e-38
1593.5 1583.01 -61.1665 1.8403113e-38
1968.76 2061.6001 -68.817596 1.8403113e-38
-634.78601 -1426.09 -51.616501 1.8403113e-38
-622.435 -1427.62 -55.576698 1.8403113e-38
-608.87201 -1425.25 -59.0564 1.8403113e-38
26.3526 -540.73499 -56.0499 1.8403113e-38
14.36165 -535.99951 -51.5084 1.8403113e-38
35.938248 -538.52246 -58.393547 1.8403113e-38
816.85303 528.099 -59.1521 1.8403113e-38
815.08197 538.02002 -56.502899 1.8403113e-38
815.20599 554.67798 -52.965202 1.8403113e-38
820.98901 575.06201 -50.292198 1.8403113e-38
1932.74 2060.3999 -58.486401 1.8403113e-38
-674.54401 -1428.27 -40.395699 1.8403113e-38
-661.14398 -1427.36 -44.139999 1.8403113e-38
-647.45898 -1425.38 -47.738499 1.8403113e-38
-22.471901 -536.74902 -40.839699 1.8403113e-38
-15.45845 -535.79456 -42.696999 1.8403113e-38
-5.6916103 -535.76001 -45.5611 1.8403113e-38
4.1471348 -535.526 -48.403702 1.8403113e-38
820.448 586.13501 -47.757401 1.8403113e-38
818.12097 596.16498 -44.921398 1.8403113e-38
818.18701 607.81403 -42.441502 1.8403113e-38
1490.8199 1513.99 -45.786701 1.8403113e-38
1897.5699 2059.4199 -48.3549 1.8403113e-38
-689.38202 -1432.78 -37 1.8403113e-38
-701.104 -1428.77 -32.693298 1.8403113e-38
-50.5354 -538.59198 -32.9842 1.8403113e-38
-44.279499 -535.22998 -34.10215 1.8403113e-38
-34.810501 -535.29346 -36.8997 1.8403113e-38
-26.8783 -538.25098 -39.866402 1.8403113e-38
812.341 615.65997 -39.039398 1.8403113e-38
816.297 630.10999 -37.102402 1.8403113e-38
816.81097 642.41302 -34.613899 1.8403113e-38
818.00299 655.33301 -32.192299 1.8403113e-38
821.47498 670.04199 -30.0576 1.8403113e-38
1862.54 2057.99 -38.364799 1.8403113e-38
-714.97601 -1430.21 -28.9242 1.8403113e-38
-740.58801 -1427.15 -20.7372 1.8403113e-38
-727.03497 -1426.89 -24.6674 1.8403113e-38
-85.620895 -535.07349 -21.913601 1.8403113e-38
-76.194748 -537.37354 -25.178551 1.8403113e-38
-65.209465 -534.95435 -27.889267 1.8403113e-38
-56.562698 -532.297 -29.861401 1.8403113e-38
815.11902 677.84802 -26.514099 1.8403113e-38
823.09497 696.211 -24.9195 1.8403113e-38
818.11499 705.19702 -21.5273 1.8403113e-38
1828.35 2056.8101 -28.564501 1.8403113e-38
-770.565 -1433.66 -13.3197 1.8403113e-38
-756.89301 -1433.6899 -17.3475 1.8403113e-38
-293.08099 -798.185 -17.367599 1.8403113e-38
-284.07901 -783.323 -16.8256 1.8403113e-38
-103.7325 -533.29999 -16.208149 1.8403113e-38
-94.946594 -532.59253 -18.63945 1.8403113e-38
-111.16 -525.763 -12.407 1.8403113e-38
819.375 718.97101 -18.9424 1.8403113e-38
818.90198 731.58801 -16.096399 1.8403113e-38
820.62903 746.09198 -13.4924 1.8403113e-38
818.30402 757.55103 -10.3504 1.8403113e-38
1788.83 2049.3501 -18.5443 1.8403113e-38
-810.50098 -1430 -0.794029 1.8403113e-38
-799.64398 -1436.8 -5.4454999 1.8403113e-38
-784.67102 -1434.39 -9.3305302 1.8403113e-38
-261.759 -678.66998 -0.93515402 1.8403113e-38
-256.121 -678.20697 -2.4932699 1.8403113e-38
-249.05299 -666.95099 -2.15658 1.8403113e-38
-242.422 -657.586 -2.09657 1.8403113e-38
-234.11551 -655.15503 -4.0173349 1.8403113e-38
-224.961 -643.82001 -4.2769399 1.8403113e-38
-219.209 -638.15002 -4.7519798 1.8403113e-38
-213.30901 -629.49402 -4.6293101 1.8403113e-38
-208.209 -629.60199 -6.1518998 1.8403113e-38
-202.39999 -618.89099 -5.5619102 1.8403113e-38
-196.939 -611.07202 -5.4899201 1.8403113e-38
-191.705 -605.16803 -5.7622099 1.8403113e-38
-183.933 -593.29004 -5.498735 1.8403113e-38
-176.46001 -581.33301 -5.13062 1.8403113e-38
-171.616 -571.35498 -4.4139199 1.8403113e-38
-164.6915 -575.87695 -7.4200954 1.8403113e-38
-155.5025 -566.94397 -8.2050848 1.8403113e-38
-148.93201 -555.15503 -7.6076398 1.8403113e-38
-144.73 -546.93201 -7.0788598 1.8403113e-38
-120.036 -523.26398 -9.2613897 1.8403113e-38
-141.73801 -515.30701 -1.17366 1.8403113e-38
-129.351 -512.828 -4.2837901 1.8403113e-38
-116.183 -518.73102 -9.4218502 1.8403113e-38
-133.8 -508.50601 -2.0484099 1.8403113e-38
-125.524 -508.37399 -4.4531398 1.8403113e-38
812 765.86298 -6.7136998 1.8403113e-38
802.55902 771.56702 -2.7140701 1.8403113e-38
815.146 795.81598 -1.21241 1.8403113e-38
1730.66 2055.04 -0.22330999 1.8403113e-38
1759.03 2051.6399 -9.2933102 1.8403113e-38
-838.91803 -1430.5 7.4544101 1.8403113e-38
-828.09998 -1437.54 2.7631099 1.8403113e-38
-306.79401 -734.63202 0.29942101 1.8403113e-38
-276.48401 -667.11499 5.8734102 1.8403113e-38
-279.51901 -653.78998 9.6246595 1.8403113e-38
-138.22099 -503.16501 0.39746401 1.8403113e-38
794.15698 791.73199 4.0827799 1.8403113e-38
821.315 829.33801 4.1659498 1.8403113e-38
828.55499 850.22498 6.5186901 1.8403113e-38
1696.36 2051.3799 9.0759497 1.8403113e-38
-884.10901 -1434.58 19.865801 1.8403113e-38
-869.73297 -1434.87 15.5775 1.8403113e-38
-855.39203 -1435 11.3315 1.8403113e-38
-283.465 -646.26801 12.3987 1.8403113e-38
791.86902 831.82599 13.3573 1.8403113e-38
1662.23 2047.27 18.2285 1.8403113e-38
-920.49402 -1447.65 27.7598 1.8403113e-38
-901.763 -1440.33 23.8218 1.8403113e-38
1633.51 2048.77 26.9949 1.8403113e-38
-937.474 -1451.23 31.982901 1.8403113e-38
-938.539 -1425.8101 37.750198 1.8403113e-38
1605.52 2050.6799 35.633801 1.8403113e-38
-945.62903 -1411.75 42.8508 1.8403113e-38
-944.53497 -1383.8199 48.522598 1.8403113e-38
1576.96 2051.47 44.200901 1.8403113e-38
-947.078 -1362.87 53.764702 1.8403113e-38
-949.83301 -1342.8199 58.8773 1.8403113e-38
1542.79 2044.97 52.853699 1.8403113e-38
-944.48602 -1310 64.345802 1.8403113e-38
-944.979 -1287.53 69.311401 1.8403113e-38
1403.88 1908.15 64.339203 1.8403113e-38
-946.21698 -1266.8199 74.119202 1.8403113e-38
-947.15802 -1246.16 78.8284 1.8403113e-38
1402.3 1939.04 71.434196 1.8403113e-38
1460.63 2047.25 77.499496 1.8403113e-38
-947.255 -1224.72 83.456497 1.8403113e-38
-948.71301 -1205.84 87.934502 1.8403113e-38
1432.6 2046.29 85.5336 1.8403113e-38
-948.78003 -1185.36 92.348602 1.8403113e-38
-947.41699 -1163.3 96.680397 1.8403113e-38
1403.49 2043.4 93.473999 1.8403113e-38
-951.49902 -1149.51 100.84 1.8403113e-38
-950.15399 -1128.4 104.973 1.8403113e-38
-948.51001 -1107.38 109 1.8403113e-38
1292.85 1930.15 101.705 1.8403113e-38
1286.15 1954.97 109 1.8403113e-38
