# .PCD v0.7 - Point Cloud Data file format
VERSION 0.7
FIELDS x y z rgb
SIZE 4 4 4 4
TYPE F F F F
COUNT 1 1 1 1
WIDTH 338
HEIGHT 1
VIEWPOINT 0 0 0 1 0 0 0
POINTS 338
DATA ascii
2491.5 443.92899 -432.87201 1.8403113e-38
2487.3401 479.617 -432.905 1.8403113e-38
2486.49 520.83398 -434.36899 1.8403113e-38
2478.1101 553.888 -432.76501 1.8403113e-38
2476.3899 597.19501 -434.00601 1.8403113e-38
2467.9299 632.88501 -432.483 1.8403113e-38
2466.23 679.92798 -433.892 1.8403113e-38
2459 720.80298 -433.035 1.8403113e-38
2453.29 765.96198 -432.918 1.8403113e-38
2447.3999 813.01898 -432.811 1.8403113e-38
2439.74 859.46802 -432.04099 1.8403113e-38
2434.1699 912.07397 -432.29099 1.8403113e-38
2427.6001 965.82098 -432.23001 1.8403113e-38
2798.9099 -2418.8201 -420.828 1.8403113e-38
2795.23 -2353.1799 -422.32199 1.8403113e-38
2790.3899 -2288.95 -423.33401 1.8403113e-38
2783.22 -2224.6299 -423.509 1.8403113e-38
2774.3201 -2161.05 -423.02899 1.8403113e-38
2768.8301 -2104.2 -423.492 1.8403113e-38
2765.77 -2052.3799 -424.612 1.8403113e-38
2754.76 -1993.89 -423.14999 1.8403113e-38
2750.3 -1944.7 -423.65302 1.8403113e-38
2748.7 -1900.24 -424.98999 1.8403113e-38
2735.25 -1898.76 -420.19 1.8403113e-38
2729.8601 -1852.09 -420.25 1.8403113e-38
2742.55 -1852.79 -424.806 1.8403113e-38
2735.9099 -1806.59 -424.396 1.8403113e-38
2725.4551 -1764.02 -422.44699 1.8403113e-38
2714.0601 -1722.02 -420.134 1.8403113e-38
2719.97 -1716.63 -422.50299 1.8403113e-38
2715.5801 -1682.205 -422.3985 1.8403113e-38
2706.75 -1645.04 -420.80701 1.8403113e-38
2712.3601 -1639.6801 -423.064 1.8403113e-38
2700.24 -1605.99 -420.133 1.8403113e-38
2711.76 -1605.48 -424.319 1.8403113e-38
2699.7 -1572.8 -421.366 1.8403113e-38
2706.5601 -1568.64 -424.02399 1.8403113e-38
2696.1001 -1538.16 -421.556 1.8403113e-38
2709.0601 -1538.58 -426.22101 1.8403113e-38
2694.0801 -1505.6 -422.22501 1.8403113e-38
2704.6399 -1504.21 -426.10199 1.8403113e-38
2588.895 -585.71301 -423.78049 1.8403113e-38
2593.9551 -565.59253 -426.47549 1.8403113e-38
2578.3401 -545.46301 -421.69601 1.8403113e-38
2592.8999 -548.34003 -426.83701 1.8403113e-38
2584.4351 -527.37354 -424.677 1.8403113e-38
2582.8201 -510.203 -424.83301 1.8403113e-38
2579.3101 -506.10501 -423.742 1.8403113e-38
2584.26 -490.08301 -426.21899 1.8403113e-38
2586.23 -485.035 -427.14899 1.8403113e-38
2584.4299 -470.03299 -427.14301 1.8403113e-38
2580.79 -466.09799 -425.99799 1.8403113e-38
2576.9099 -451.522 -425.22101 1.8403113e-38
2580.5601 -446.05899 -426.77499 1.8403113e-38
2477.0901 395.48401 -425.582 1.8403113e-38
2485.8799 398.29401 -428.87799 1.8403113e-38
2478.9299 436.58301 -428.01401 1.8403113e-38
2472.3999 469.05701 -427.04999 1.8403113e-38
2468.0601 505.461 -427.048 1.8403113e-38
2465.1399 545.16699 -427.69901 1.8403113e-38
2462.3201 586.711 -428.47 1.8403113e-38
2457.3101 626.94397 -428.38901 1.8403113e-38
2450.71 666.58197 -427.707 1.8403113e-38
2446.26 711.28998 -428.022 1.8403113e-38
2442.6699 759.56598 -428.80399 1.8403113e-38
2431.75 798.10498 -426.513 1.8403113e-38
2423.74 843.46002 -425.569 1.8403113e-38
2414.98 889.83698 -424.39899 1.8403113e-38
2410.02 945.875 -425.01901 1.8403113e-38
2879.6599 -3181.21 -417.216 1.8403113e-38
2863.0701 -3053.6399 -416.707 1.8403113e-38
2850.6299 -2941.1299 -417.05099 1.8403113e-38
2838.98 -2836.5601 -417.34 1.8403113e-38
2833.1899 -2747.3501 -419.08499 1.8403113e-38
2799.8101 -2640.6599 -411.60901 1.8403113e-38
2817.9199 -2648.21 -417.82999 1.8403113e-38
2811.8799 -2568.26 -419.08701 1.8403113e-38
2787.3201 -2550.98 -410.953 1.8403113e-38
2804.74 -2490.73 -419.84201 1.8403113e-38
2782.3501 -2476.96 -412.34201 1.8403113e-38
2776.49 -2405.27 -413.30701 1.8403113e-38
2775.6899 -2343.8301 -415.66 1.8403113e-38
2769.0601 -2277.45 -416.121 1.8403113e-38
2763.0901 -2214.8799 -416.65302 1.8403113e-38
2761.05 -2159.8301 -418.284 1.8403113e-38
2756.3101 -2103.8101 -418.98199 1.8403113e-38
2748.8201 -2046.9301 -418.72198 1.8403113e-38
2741.8201 -1992.91 -418.51599 1.8403113e-38
2738.79 -1945.24 -419.47101 1.8403113e-38
2723.3101 -1805.99 -419.867 1.8403113e-38
2980.49 -4340.54 -403.78601 1.8403113e-38
2970.0901 -4144.0098 -408.48099 1.8403113e-38
2845.71 -3247.9199 -402.077 1.8403113e-38
2853.1299 -3233.1899 -405.392 1.8403113e-38
2848.52 -3150.3799 -407.289 1.8403113e-38
2831.8401 -3023.1001 -406.73401 1.8403113e-38
2820.23 -2912.6299 -407.29199 1.8403113e-38
2813.49 -2816.8899 -408.974 1.8403113e-38
2801.4199 -2717.8401 -408.871 1.8403113e-38
2960.1399 -4472.0801 -390.77301 1.8403113e-38
2921.99 -4070.1201 -394.27499 1.8403113e-38
2820.47 -3275.1101 -391.785 1.8403113e-38
2927.53 -4252.1802 -388.448 1.8403113e-38
2855.5601 -3759.3301 -383.63699 1.8403113e-38
2801.6201 -3348.03 -381.83301 1.8403113e-38
2817.95 -3300.49 -389.78201 1.8403113e-38
2782.6499 -3459.23 -370.19501 1.8403113e-38
2784.8201 -3430.0601 -372.233 1.8403113e-38
2799.74 -3376.1899 -379.944 1.8403113e-38
2888.29 -4523.46 -362.595 1.8403113e-38
2784.5701 -3556.0701 -366.72198 1.8403113e-38
2404.47 -472.57599 -361.991 1.8403113e-38
2205.54 1189.29 -361.58401 1.8403113e-38
2102.22 2029.0699 -360.37 1.8403113e-38
2111.71 2029.09 -363.798 1.8403113e-38
2483.5601 -1329.42 -353.71701 1.8403113e-38
2239.5 680.99402 -351.991 1.8403113e-38
2250.23 691.513 -356.323 1.8403113e-38
2841.0601 -4537.2998 -344.92899 1.8403113e-38
2404.24 -957.80902 -341.03601 1.8403113e-38
2401.23 -939.698 -340.72699 1.8403113e-38
2401.53 -922.81799 -341.56201 1.8403113e-38
2396.05 -904.53601 -340.36801 1.8403113e-38
2397.6899 -893.03998 -341.45401 1.8403113e-38
2393.9099 -887.42999 -340.32999 1.8403113e-38
2394.7852 -873.51355 -341.246 1.8403113e-38
2393.4849 -856.90454 -341.4895 1.8403113e-38
2391.6001 -842.55499 -341.42599 1.8403113e-38
2394.0601 -838.55701 -342.48599 1.8403113e-38
2388.8999 -821.57501 -341.353 1.8403113e-38
2393.95 -826.85101 -342.952 1.8403113e-38
2390.45 -810.23102 -342.401 1.8403113e-38
2391.8501 -806.09497 -343.08401 1.8403113e-38
2391.075 -792.22949 -343.39899 1.8403113e-38
2389.1599 -778.27002 -343.30801 1.8403113e-38
2393.23 -774.49298 -344.944 1.8403113e-38
2392.3301 -762.79199 -345.121 1.8403113e-38
2384.1499 -757.80603 -342.38 1.8403113e-38
2378.55 -741.76398 -341.04401 1.8403113e-38
2384.9199 -746.383 -343.14999 1.8403113e-38
2376.3 -730.20801 -340.73001 1.8403113e-38
2380.2 -726.38098 -342.30099 1.8403113e-38
2377.76 -714.81799 -341.91699 1.8403113e-38
2380.6499 -710.91199 -343.13 1.8403113e-38
2378.4951 -697.37549 -342.93298 1.8403113e-38
2378.02 -683.89099 -343.34299 1.8403113e-38
2371.3899 -679.927 -341.116 1.8403113e-38
2378.1851 -666.45801 -344.15302 1.8403113e-38
2377.27 -652.95801 -344.40201 1.8403113e-38
2378.04 -649.047 -344.84799 1.8403113e-38
2377.22 -633.60901 -345.21701 1.8403113e-38
2382.1499 -637.224 -346.84201 1.8403113e-38
2388.6299 -621.16699 -349.87601 1.8403113e-38
2382.71 -617.71198 -347.88599 1.8403113e-38
2212.1399 684.30499 -342.24701 1.8403113e-38
2223.0901 695.96002 -346.70499 1.8403113e-38
2187.29 1045.04 -348.785 1.8403113e-38
2165.1499 1173.65 -346.315 1.8403113e-38
2057.52 2039.67 -344.668 1.8403113e-38
2067.9299 2044.78 -348.651 1.8403113e-38
2822.4299 -4538.2998 -338.15302 1.8403113e-38
2729.48 -3897.6899 -332.117 1.8403113e-38
2431.48 -1286.27 -336.74899 1.8403113e-38
2427.3301 -1267.67 -336.04999 1.8403113e-38
2423.4199 -1258.22 -335.04599 1.8403113e-38
2422.0601 -1241.99 -335.25299 1.8403113e-38
2426.1001 -1237.88 -336.888 1.8403113e-38
2421.96 -1220.21 -336.15399 1.8403113e-38
2429.1899 -1218.1 -338.858 1.8403113e-38
2417.29 -1196.14 -335.49899 1.8403113e-38
2415.3401 -1188.64 -335.11899 1.8403113e-38
2419.6001 -1176.67 -337.172 1.8403113e-38
2416.6899 -1168.8 -336.45901 1.8403113e-38
2415.6499 -1154.0601 -336.71701 1.8403113e-38
2419.3401 -1149.97 -338.22601 1.8403113e-38
2413.77 -1133.0601 -336.94299 1.8403113e-38
2411.4199 -1125.9 -336.401 1.8403113e-38
2407.2 -1110.13 -335.55301 1.8403113e-38
2404.71 -1103.11 -334.95599 1.8403113e-38
2408.77 -1091.6899 -336.91299 1.8403113e-38
2405.3 -1084.36 -335.97299 1.8403113e-38
2399.5701 -1068.5601 -334.58301 1.8403113e-38
2403.79 -1064.9301 -336.26401 1.8403113e-38
2398.6299 -1049.6899 -335.056 1.8403113e-38
2402.78 -1046.05 -336.71301 1.8403113e-38
2405.26 -1034.24 -338.11801 1.8403113e-38
2400.54 -1026.96 -336.72299 1.8403113e-38
2404.3501 -1013.16 -338.69501 1.8403113e-38
2399.9399 -996.30402 -337.82599 1.8403113e-38
2403.8999 -992.60498 -339.41501 1.8403113e-38
2403.9199 -980.14697 -339.95901 1.8403113e-38
2397.9399 -972.99402 -338.10501 1.8403113e-38
2400.4099 -961.54602 -339.492 1.8403113e-38
2397.47 -943.44 -339.20599 1.8403113e-38
2396.01 -926.04999 -339.42801 1.8403113e-38
2394.25 -908.78601 -339.53299 1.8403113e-38
2336.9299 -485.20801 -337.03799 1.8403113e-38
2328.8899 -471.715 -334.71201 1.8403113e-38
2332.4299 -474.26999 -335.884 1.8403113e-38
2326.04 -460.383 -334.17001 1.8403113e-38
2335.1399 -454.34799 -337.71799 1.8403113e-38
2327.55 -444.23901 -335.41101 1.8403113e-38
2189.0701 695.914 -334.40799 1.8403113e-38
2197.71 703.37201 -337.85199 1.8403113e-38
2155.51 879.21698 -330.16501 1.8403113e-38
2138.3601 1197.61 -337.66101 1.8403113e-38
2022.12 2049.8799 -332.31299 1.8403113e-38
2727.5801 -4015.6699 -326.35501 1.8403113e-38
2307.72 -446.79501 -328.133 1.8403113e-38
2165.4299 706.19098 -326.30499 1.8403113e-38
2171.8999 709.37299 -328.784 1.8403113e-38
2148.8501 721.16199 -320.95801 1.8403113e-38
2130.0701 906.599 -322.147 1.8403113e-38
2136.72 1011.74 -329.07501 1.8403113e-38
2122.6899 1065.09 -326.29901 1.8403113e-38
2114.76 1143 -326.785 1.8403113e-38
2010.8101 2038.65 -327.74301 1.8403113e-38
2766.9199 -4525.52 -318.64001 1.8403113e-38
2141.27 715.112 -317.95801 1.8403113e-38
2119.6201 729.94702 -310.77301 1.8403113e-38
2128.6101 739.80701 -314.44601 1.8403113e-38
1965.6801 2045.59 -311.73001 1.8403113e-38
1975.85 2051.1599 -315.647 1.8403113e-38
2238.1799 -455.34851 -302.63348 1.8403113e-38
2105.53 764.62701 -307.17001 1.8403113e-38
2016.25 1432.37 -303.629 1.8403113e-38
2213.72 -450.93201 -293.98199 1.8403113e-38
2205.27 -440.08401 -291.397 1.8403113e-38
2212.8601 -448.32101 -293.78299 1.8403113e-38
2007.4399 1215.9 -291.134 1.8403113e-38
1925.23 2052.615 -297.41602 1.8403113e-38
2196.4099 -440.453 -288.17801 1.8403113e-38
2186.5352 -431.95752 -284.97549 1.8403113e-38
2129.21 -28.943899 -281.59201 1.8403113e-38
2020.36 917.69397 -282.97299 1.8403113e-38
2001.3199 1216.36 -288.94101 1.8403113e-38
1977.23 1229.53 -280.802 1.8403113e-38
1883.47 2049.1201 -282.172 1.8403113e-38
2151.28 -420.76501 -272.71201 1.8403113e-38
2164.28 -425.96301 -277.19 1.8403113e-38
2171.3201 -425.79401 -279.742 1.8403113e-38
2152.95 -417.44501 -273.45901 1.8403113e-38
1874.53 2051 -279.01901 1.8403113e-38
2136.3601 -411.59698 -267.716 1.8403113e-38
2141.6201 -411.78201 -269.60901 1.8403113e-38
2117.6201 -394.34399 -261.686 1.8403113e-38
2120.3101 -395.47299 -262.60699 1.8403113e-38
2111.2 -373.67599 -260.254 1.8403113e-38
1829.55 2057.3799 -263.039 1.8403113e-38
1838.63 2056.6899 -266.29001 1.8403113e-38
2114.74 -411.08701 -259.92401 1.8403113e-38
2112.95 -409.51599 -259.34299 1.8403113e-38
2099.4299 -392.96899 -255.16901 1.8403113e-38
2100.1299 -390.25201 -255.53799 1.8403113e-38
2091.0801 -371.46799 -253.078 1.8403113e-38
2109.3201 -372.26099 -259.63699 1.8403113e-38
2086.6399 -360.80899 -251.929 1.8403113e-38
2091.7 -368.78601 -253.41499 1.8403113e-38
2088.03 -357.664 -252.567 1.8403113e-38
2058.51 -127.458 -251.80099 1.8403113e-38
2067.1101 -101.112 -256.04501 1.8403113e-38
1950.87 773.15302 -251.64301 1.8403113e-38
1973.41 775.78198 -259.89899 1.8403113e-38
2447.03 -3563.49 -244.409 1.8403113e-38
2077.4199 -351.871 -248.98151 1.8403113e-38
2071.8401 -341.95999 -247.392 1.8403113e-38
2064.915 -332.94299 -245.276 1.8403113e-38
2057.8501 -324.0705 -243.1055 1.8403113e-38
2057.8301 -311.345 -243.645 1.8403113e-38
2055.2749 -305.00848 -242.996 1.8403113e-38
2045.95 -291.73901 -240.19501 1.8403113e-38
2052.6899 -298.69601 -242.33299 1.8403113e-38
2045.5 -289.84 -240.114 1.8403113e-38
2046.23 -275.77802 -240.9845 1.8403113e-38
2045.39 -260.30099 -241.34599 1.8403113e-38
2045.5601 -244.72 -242.076 1.8403113e-38
2038.9399 -234.765 -240.11501 1.8403113e-38
2042.6899 -215.10899 -242.315 1.8403113e-38
2039.745 -202.40649 -241.7955 1.8403113e-38
2041.3199 -184.916 -243.118 1.8403113e-38
2048 -175.647 -245.92999 1.8403113e-38
2048.0051 -158.87601 -246.653 1.8403113e-38
2051.5901 -137.731 -248.86 1.8403113e-38
1944.0699 764.76501 -248.823 1.8403113e-38
1925.9 785.69049 -243.15649 1.8403113e-38
1783.8 2054.98 -246.39999 1.8403113e-38
1792.76 2053.5 -249.57401 1.8403113e-38
2039.3101 -267.66501 -238.832 1.8403113e-38
2038.9 -252.819 -239.321 1.8403113e-38
2038.14 -237.858 -239.692 1.8403113e-38
2036.34 -223.44 -239.661 1.8403113e-38
1747.1 2049.4399 -232.899 1.8403113e-38
2402.1201 -3538.8401 -229.23801 1.8403113e-38
2380.22 -3513.01 -222.437 1.8403113e-38
1738.16 2050.72 -229.724 1.8403113e-38
2481.78 -4551.6499 -214.463 1.8403113e-38
2349.25 -3532.4099 -210.408 1.8403113e-38
1693.25 2054.5701 -213.65601 1.8403113e-38
1702.2 2053.49 -216.845 1.8403113e-38
2334 -3528.3201 -205.073 1.8403113e-38
1657.25 2056.71 -200.73801 1.8403113e-38
2421.6001 -4503.1499 -194.797 1.8403113e-38
1648.29 2057.5901 -197.537 1.8403113e-38
2412.98 -4544.0698 -189.922 1.8403113e-38
1603.28 2058.77 -181.32001 1.8403113e-38
1612.04 2050.1101 -184.11501 1.8403113e-38
2244.3999 -3514.3899 -173.287 1.8403113e-38
2221.9099 -3241 -176.922 1.8403113e-38
2205.6799 -3227.6299 -171.63 1.8403113e-38
2312.97 -4382.4502 -160.73 1.8403113e-38
2329.23 -4378.02 -166.79601 1.8403113e-38
1558.25 2052.1299 -164.761 1.8403113e-38
1567.21 2054.6599 -168.10699 1.8403113e-38
1522.3101 2053.3701 -151.825 1.8403113e-38
2265.8501 -4377.2998 -143.91901 1.8403113e-38
1513.39 2052.6399 -148.56799 1.8403113e-38
2248.8301 -4377.5298 -137.757 1.8403113e-38
1480.5699 1924.37 -131.189 1.8403113e-38
2202.52 -4374.3799 -121.156 1.8403113e-38
1472.12 1925.4399 -128.17999 1.8403113e-38
2021 -3426.6899 -96.3209 1.8403113e-38
1473.78 1040.55 -90.715797 1.8403113e-38
1471.8 974.638 -87.163696 1.8403113e-38
1923.55 -3100.52 -75.1287 1.8403113e-38
1936.24 -3106.6299 -79.452499 1.8403113e-38
1444.98 968.44897 -77.204201 1.8403113e-38
1449.45 971.55499 -78.9534 1.8403113e-38
1417.24 1039.78 -70.246696 1.8403113e-38
1391.74 1304.7 -72.425797 1.8403113e-38
1880.74 -3084.79 -60.3335 1.8403113e-38
1891.38 -3078.24 -64.4636 1.8403113e-38
1334.67 1562.88 -62.9058 1.8403113e-38
1334.47 1643.12 -66.286301 1.8403113e-38
1868.66 -3214.6201 -50.3843 1.8403113e-38
1324.53 1375.97 -51.2034 1.8403113e-38
1854.9399 -3201.22 -46.002701 1.8403113e-38
1363.3 968.81201 -47.698101 1.8403113e-38
1810.45 -3177.1299 -30.9571 1.8403113e-38
