# .PCD v0.7 - Point Cloud Data file format
VERSION 0.7
FIELDS x y z rgb
SIZE 4 4 4 4
TYPE F F F F
COUNT 1 1 1 1
WIDTH 311
HEIGHT 1
VIEWPOINT 0 0 0 1 0 0 0
POINTS 311
DATA ascii
-509.18399 1741.67 -451.77399 1.8403113e-38
-653.547 1824.53 -454.56699 1.8403113e-38
-810.75598 1913.45 -457.18799 1.8403113e-38
-927.94 1953.03 -450.49701 1.8403113e-38
-364.53601 1632.7 -440.573 1.8403113e-38
-356.72 1641.28 -444.651 1.8403113e-38
-484.51401 1695.41 -440.90601 1.8403113e-38
-621.16998 1770.2 -442.371 1.8403113e-38
-779.98401 1861.36 -445.44601 1.8403113e-38
1649.97 569.87598 -431.81601 1.8403113e-38
1629.5 574.86798 -430.026 1.8403113e-38
1625.21 582.159 -431.67001 1.8403113e-38
1589.24 598.98602 -431.13101 1.8403113e-38
1523.53 634.33606 -431.638 1.8403113e-38
1499.15 643.55103 -430.56299 1.8403113e-38
1504.35 643.34998 -431.36401 1.8403113e-38
1482.26 653.58002 -430.99799 1.8403113e-38
1434.05 678.62952 -431.08301 1.8403113e-38
1412.92 695.39398 -432.99399 1.8403113e-38
1340.36 726.04401 -430.83899 1.8403113e-38
1308.99 740.573 -430.32101 1.8403113e-38
1313.41 748.698 -433.686 1.8403113e-38
1285.5 754.93298 -431.05902 1.8403113e-38
1255.84 768.17999 -430.41101 1.8403113e-38
1262.4301 764.20599 -430.22198 1.8403113e-38
1234.33 781.64697 -431.19101 1.8403113e-38
1204.29 804.20599 -433.49399 1.8403113e-38
-899.35199 1903.97 -439.37399 1.8403113e-38
2284.28 214.967 -422.50201 1.8403113e-38
2269.22 224.86249 -423.198 1.8403113e-38
2251.9299 235.72501 -423.83749 1.8403113e-38
2232 243.4505 -423.021 1.8403113e-38
2212.3701 254.756 -423.41299 1.8403113e-38
2221.5801 258.20401 -426.061 1.8403113e-38
2174.8799 263.845 -420.11499 1.8403113e-38
2198.6299 269.29501 -425.83301 1.8403113e-38
2202.3601 266.366 -425.50601 1.8403113e-38
2159.79 276.32199 -421.64401 1.8403113e-38
2139.45 281.755 -420.01599 1.8403113e-38
2160.02 284.323 -424.272 1.8403113e-38
2182.27 280.69199 -426.79901 1.8403113e-38
2128.4099 299.80099 -424.021 1.8403113e-38
2145.1299 297.33701 -426.005 1.8403113e-38
2105.1699 304.67749 -421.73199 1.8403113e-38
2124.5601 302.44 -424.233 1.8403113e-38
2088.6899 319.26599 -423.711 1.8403113e-38
2054.52 329.22198 -421.246 1.8403113e-38
2066.1399 320.01801 -420.202 1.8403113e-38
2034.86 338.4855 -420.97198 1.8403113e-38
2051.51 333.18201 -422.02802 1.8403113e-38
2021.855 354.90201 -424.1225 1.8403113e-38
2004.71 364.12 -424.2525 1.8403113e-38
1964.4301 375.51801 -421.23901 1.8403113e-38
1989.6899 372.427 -424.44299 1.8403113e-38
1972.26 381.116 -424.354 1.8403113e-38
1988.51 380.401 -426.82599 1.8403113e-38
1936.99 397.629 -423.82901 1.8403113e-38
1954.165 393.90997 -425.48401 1.8403113e-38
1919.51 406.31601 -423.733 1.8403113e-38
1936.12 407.27802 -426.80701 1.8403113e-38
1918.11 415.08899 -426.33899 1.8403113e-38
1899.98 422.603 -425.754 1.8403113e-38
1904.3101 420.84 -425.90399 1.8403113e-38
1886.865 436.9035 -428.19949 1.8403113e-38
1866.16 444.72198 -427.285 1.8403113e-38
1870.58 443.09 -427.492 1.8403113e-38
1849.9 458.535 -429.04901 1.8403113e-38
1852.59 451.60901 -427.255 1.8403113e-38
1815.3101 465.07401 -425.409 1.8403113e-38
1829.9399 461.332 -426.633 1.8403113e-38
1835.83 464.33401 -428.58499 1.8403113e-38
1796.62 471.80099 -424.47699 1.8403113e-38
1813.15 474.634 -428.14401 1.8403113e-38
1796.24 488.61301 -429.85501 1.8403113e-38
1762.34 499.02899 -427.58401 1.8403113e-38
1777.13 495.04199 -428.75601 1.8403113e-38
1782.21 495.58301 -429.77701 1.8403113e-38
1743.24 505.82401 -426.60501 1.8403113e-38
1758.12 502.07599 -427.86899 1.8403113e-38
1740.7 517.117 -429.83899 1.8403113e-38
1706.11 526.85699 -427.23499 1.8403113e-38
1723.27 521.18201 -428.25348 1.8403113e-38
1687.0601 536.48199 -427.17899 1.8403113e-38
1702.01 531.57001 -428.077 1.8403113e-38
1682.7 540.19897 -427.65701 1.8403113e-38
1666.035 551.3855 -428.50403 1.8403113e-38
1644.08 562.18402 -428.34601 1.8403113e-38
1606.835 584.55249 -429.388 1.8403113e-38
1584.09 597.62598 -429.83499 1.8403113e-38
1565.595 601.31653 -427.9505 1.8403113e-38
1544.8 616.32349 -429.34698 1.8403113e-38
1477.04 652.74298 -429.85999 1.8403113e-38
1457.28 661.55652 -429.42352 1.8403113e-38
1408.98 678.10101 -426.73901 1.8403113e-38
1384.9399 693.401 -427.69101 1.8403113e-38
1390.24 694.599 -428.961 1.8403113e-38
1365.7 709.58301 -429.72699 1.8403113e-38
1359.89 712.09302 -429.573 1.8403113e-38
1334.84 725.60303 -429.77701 1.8403113e-38
1228.59 780.79303 -429.95901 1.8403113e-38
1181.46 793.41901 -426.203 1.8403113e-38
1200.63 793.849 -429.53201 1.8403113e-38
3290.6899 -325.504 -415.04999 1.8403113e-38
3239.1001 -302.259 -413.98801 1.8403113e-38
2084.3501 304.19501 -418.10999 1.8403113e-38
2069.0601 316.01999 -419.39301 1.8403113e-38
1181.77 768.026 -418.034 1.8403113e-38
3585.8 -499.069 -407.98199 1.8403113e-38
3304.3601 -362.12 -405.47198 1.8403113e-38
3312.8301 -353.76099 -409.58899 1.8403113e-38
3261.97 -336.58301 -406.68301 1.8403113e-38
3218.3101 -312.51001 -407.20999 1.8403113e-38
3158.01 -292.48901 -403.655 1.8403113e-38
1169.3 721.42798 -400.87399 1.8403113e-38
1172.3 731.86603 -404.75299 1.8403113e-38
3549.0701 -508.397 -398.85101 1.8403113e-38
3309.3 -392.48999 -396.46399 1.8403113e-38
3310.1201 -385.05499 -399.008 1.8403113e-38
3311.73 -423.065 -386.97198 1.8403113e-38
3307.8 -416.05899 -388.586 1.8403113e-38
1160.27 687.992 -388.54999 1.8403113e-38
3303.9199 -446.93799 -377.944 1.8403113e-38
1169.13 637.58899 -373.70801 1.8403113e-38
27.265699 1235.02 -377.05399 1.8403113e-38
41.005699 1232.95 -378.67001 1.8403113e-38
3263.5601 -456.646 -368.08499 1.8403113e-38
3332.6699 -544.867 -351.03101 1.8403113e-38
3332.2 -537.56201 -353.31699 1.8403113e-38
3264.79 -486.31601 -358.686 1.8403113e-38
3258.1799 -479.55301 -359.77499 1.8403113e-38
1173.83 564.40399 -350.802 1.8403113e-38
2134.9099 58.5952 -347.02701 1.8403113e-38
1153.51 544.44598 -340.95999 1.8403113e-38
1170.1801 559.56201 -348.62701 1.8403113e-38
1152.58 563.17102 -346.866 1.8403113e-38
2143.9849 25.620951 -337.86301 1.8403113e-38
2104.5701 11.9076 -326.86401 1.8403113e-38
2112.6101 14.6659 -329.095 1.8403113e-38
1164.25 451.17801 -312.55701 1.8403113e-38
1163.86 466.12701 -317.33099 1.8403113e-38
2090.27 -41.729 -307.12201 1.8403113e-38
1155.91 419.56699 -300.936 1.8403113e-38
1137.79 428.24899 -300.73099 1.8403113e-38
1158.4301 425.358 -303.23001 1.8403113e-38
1112.63 441.58301 -300.86099 1.8403113e-38
1029.8199 487.21399 -301.849 1.8403113e-38
1048.79 481.95499 -303.30399 1.8403113e-38
1052.42 485.38101 -305.017 1.8403113e-38
-156.97501 1102.79 -303.59 1.8403113e-38
1118.62 414.923 -293.22699 1.8403113e-38
1137.09 417.866 -297.25299 1.8403113e-38
1099.39 424.76999 -293.21399 1.8403113e-38
1089.88 435.849 -295.21799 1.8403113e-38
1016.365 463.96301 -292.08301 1.8403113e-38
1028.29 479.28799 -299.02802 1.8403113e-38
438.64401 783.14301 -299.25101 1.8403113e-38
2040.48 -90.935699 -282.90799 1.8403113e-38
976.85199 449.983 -280.98199 1.8403113e-38
1005.71 446.767 -284.74399 1.8403113e-38
980.65997 452.78699 -282.52399 1.8403113e-38
998.79999 450.15601 -284.69101 1.8403113e-38
-85.317299 1018.84 -288.34399 1.8403113e-38
2025.04 -121.353 -270.49301 1.8403113e-38
2039.4399 -104.894 -278.21799 1.8403113e-38
906.34601 453.58301 -270.41299 1.8403113e-38
910.60999 455.80301 -271.84201 1.8403113e-38
927.73798 456.832 -275.026 1.8403113e-38
936.39502 451.29901 -274.67499 1.8403113e-38
954.7865 454.2485 -278.69049 1.8403113e-38
759.96301 533.09003 -271.78699 1.8403113e-38
-75.6446 957.97601 -270.25101 1.8403113e-38
-72.265198 966.79102 -273.66699 1.8403113e-38
2844.6299 -566.69202 -262.74301 1.8403113e-38
2021.98 -151.73 -260.14999 1.8403113e-38
2020.29 -141.336 -263.23401 1.8403113e-38
2021.99 -136.17101 -265.189 1.8403113e-38
858.16602 454.09201 -262.56 1.8403113e-38
861.362 458.16299 -264.409 1.8403113e-38
878.70099 459.931 -267.867 1.8403113e-38
888.65997 453.05899 -267.29999 1.8403113e-38
825.02301 475.78299 -264.065 1.8403113e-38
810.82397 487.94901 -265.64001 1.8403113e-38
766.08398 514.90002 -266.918 1.8403113e-38
578.81403 617.48798 -268.95801 1.8403113e-38
2020.73 -182.36099 -250.028 1.8403113e-38
2021.86 -170.414 -254.084 1.8403113e-38
2019.3101 -168.882 -254.155 1.8403113e-38
2022.37 -155.045 -259.14301 1.8403113e-38
748.48199 473.20599 -250.492 1.8403113e-38
758.29303 487.85901 -256.86801 1.8403113e-38
768.98102 481.836 -256.69699 1.8403113e-38
2761.01 -571.43298 -247.291 1.8403113e-38
2015.335 -202.0825 -242.74651 1.8403113e-38
2015.61 -189.586 -246.838 1.8403113e-38
747.13 466.38 -248.058 1.8403113e-38
715.99103 471.40201 -244.50101 1.8403113e-38
721.49597 472.815 -245.87399 1.8403113e-38
9.39995 840.73401 -246.455 1.8403113e-38
-716.19 1196.7 -240.92 1.8403113e-38
2382.8101 -416.229 -234.58701 1.8403113e-38
2017.51 -233.96451 -232.789 1.8403113e-38
2013.53 -228.55 -233.879 1.8403113e-38
2016.365 -214.961 -238.7485 1.8403113e-38
44.589001 797.12799 -238.196 1.8403113e-38
-724.08301 1188.71 -237.02 1.8403113e-38
2023.1499 -274.19647 -220.7045 1.8403113e-38
2017.3999 -265.41602 -222.58951 1.8403113e-38
2018.8149 -252.222 -227.09601 1.8403113e-38
2013.41 -244.532 -228.685 1.8403113e-38
38.546799 758.07397 -224.549 1.8403113e-38
43.9506 763.71301 -227.274 1.8403113e-38
-430.40399 1011.35 -228.485 1.8403113e-38
-741.78497 1157.36 -223.92599 1.8403113e-38
2574.03 -583.68298 -212.20799 1.8403113e-38
2038.515 -313.05951 -210.6825 1.8403113e-38
2032.6 -304.47852 -212.47449 1.8403113e-38
2028.235 -295.11652 -214.77899 1.8403113e-38
2025.8 -284.65948 -217.7585 1.8403113e-38
4.84729 743.93903 -214.36501 1.8403113e-38
17.690901 743.16803 -216.25301 1.8403113e-38
-727.22101 1132.4 -218.269 1.8403113e-38
2529.72 -586.86798 -203.80299 1.8403113e-38
2076.8901 -364.60999 -200.38251 1.8403113e-38
2064.5801 -358.01999 -200.4655 1.8403113e-38
2059.3301 -347.66101 -202.94701 1.8403113e-38
2061.27 -349.54501 -202.659 1.8403113e-38
2043.2 -332.134 -205.287 1.8403113e-38
2055.8433 -335.96201 -206.15234 1.8403113e-38
2041.6699 -322.9425 -208.008 1.8403113e-38
-23.3755 724.56403 -203.397 1.8403113e-38
-16.605101 729.17401 -206.01601 1.8403113e-38
-110.284 762.92499 -201.35001 1.8403113e-38
-767.70099 1104.6801 -202.561 1.8403113e-38
-755.33698 1109.34 -206.127 1.8403113e-38
2192.97 -437.63251 -196.064 1.8403113e-38
2152.1099 -422.267 -194.237 1.8403113e-38
2169.1001 -428.93201 -194.908 1.8403113e-38
2178.4099 -429.86899 -196.155 1.8403113e-38
2136.99 -415.62 -193.87199 1.8403113e-38
2147.5701 -410.36099 -197.33501 1.8403113e-38
2104.8899 -401.384 -193.13901 1.8403113e-38
2134.6851 -403.40997 -197.4415 1.8403113e-38
2115.29 -395.866 -196.65601 1.8403113e-38
2095.8 -381.88199 -197.938 1.8403113e-38
2108.8601 -386.448 -198.634 1.8403113e-38
2111.6001 -388.32999 -198.481 1.8403113e-38
2079.05 -373.59299 -197.83299 1.8403113e-38
2080.8899 -375.59799 -197.492 1.8403113e-38
2093.97 -379.80301 -198.30701 1.8403113e-38
2429.28 -599.841 -182.888 1.8403113e-38
2445.05 -596.75598 -186.50999 1.8403113e-38
-744.133 1031.16 -182.685 1.8403113e-38
-779.20801 1069.41 -189.228 1.8403113e-38
2373.01 -608.53699 -170.707 1.8403113e-38
2359.9199 -623.742 -163.6075 1.8403113e-38
2360.1399 -611.23401 -167.69299 1.8403113e-38
2358.6851 -652.08252 -154.22749 1.8403113e-38
2359.5 -636.23499 -159.494 1.8403113e-38
2360.3401 -639.70203 -158.511 1.8403113e-38
-424.35199 769.492 -151.20599 1.8403113e-38
2360.2949 -695.22699 -140.5305 1.8403113e-38
2361.1599 -682.69 -144.733 1.8403113e-38
2361.5 -679.315 -145.881 1.8403113e-38
2355.71 -665.974 -149.23599 1.8403113e-38
-415.642 752.41199 -147.127 1.8403113e-38
-657.06598 865.20502 -143.457 1.8403113e-38
-658.00201 878.03198 -147.45399 1.8403113e-38
2355.72 -724.98798 -130.13499 1.8403113e-38
2365.03 -723.30701 -132.23 1.8403113e-38
2356.8101 -710.76001 -134.923 1.8403113e-38
2358.25 -707.57703 -136.192 1.8403113e-38
-650.70099 822.54102 -130.707 1.8403113e-38
2358.895 -753.04102 -121.584 1.8403113e-38
2359.23 -740.224 -125.789 1.8403113e-38
2361.77 -737.27002 -127.166 1.8403113e-38
-686.59302 833.39301 -128.246 1.8403113e-38
2360.6899 -783.05402 -112.1675 1.8403113e-38
2364.4199 -770.875 -116.73 1.8403113e-38
2365.1299 -767.505 -117.94 1.8403113e-38
-681.211 791.78003 -115.672 1.8403113e-38
-729.22101 809.30499 -113.354 1.8403113e-38
2362.29 -813.5885 -102.55 1.8403113e-38
2357.8501 -799.01801 -106.528 1.8403113e-38
2367.3401 -798.07001 -108.414 1.8403113e-38
-750.74298 783.85199 -101.534 1.8403113e-38
2372.1748 -847.54297 -93.204346 1.8403113e-38
2365.49 -831.69 -97.223099 1.8403113e-38
2366.47 -828.328 -98.4739 1.8403113e-38
-762.95099 779.08502 -97.958801 1.8403113e-38
2370.6799 -880.56702 -82.266502 1.8403113e-38
2372.8101 -877.53802 -83.600502 1.8403113e-38
2368.1099 -861.86401 -87.892151 1.8403113e-38
-642.62097 672.15601 -83.372902 1.8403113e-38
2374.03 -914.341 -71.890602 1.8403113e-38
2367.02 -907.58502 -72.911201 1.8403113e-38
2366.175 -892.9895 -77.494507 1.8403113e-38
-634.43298 656.341 -79.6166 1.8403113e-38
2368.6599 -945.33002 -60.9669 1.8403113e-38
2371.04 -942.383 -62.316898 1.8403113e-38
2368.0552 -926.3905 -66.996902 1.8403113e-38
-642.88 614.784 -64.759102 1.8403113e-38
-632.97699 620.297 -68.191803 1.8403113e-38
2372.6799 -977.30499 -51.284801 1.8403113e-38
2370.5 -963.14099 -55.507599 1.8403113e-38
2372.04 -959.78497 -56.8507 1.8403113e-38
-463.95001 485.284 -52.619801 1.8403113e-38
2369.46 -997.38 -44.250702 1.8403113e-38
2371.1499 -994.03497 -45.614799 1.8403113e-38
2371.0601 -980.65997 -49.9296 1.8403113e-38
-471.58301 479.40601 -49.447102 1.8403113e-38
2369.27 -1015.08 -38.490898 1.8403113e-38
