# .PCD v0.7 - Point Cloud Data file format
VERSION 0.7
FIELDS x y z rgb
SIZE 4 4 4 4
TYPE F F F F
COUNT 1 1 1 1
WIDTH 358
HEIGHT 1
VIEWPOINT 0 0 0 1 0 0 0
POINTS 358
DATA ascii
-861.05603 -712.86298 -444.26401 1.8403113e-38
-770.19598 -642.03198 -440.771 1.8403113e-38
-652.82599 -528.40601 -442.17599 1.8403113e-38
-596.60101 -479.54401 -441.35999 1.8403113e-38
-521.63202 -414.952 -440.12201 1.8403113e-38
-352.659 -258.78299 -440.16199 1.8403113e-38
-326.23099 -233.83099 -440.30899 1.8403113e-38
-302.34 -209.466 -440.92599 1.8403113e-38
-841.98401 -744.91803 -430.983 1.8403113e-38
-842.61102 -724.034 -436.72299 1.8403113e-38
-811.133 -683.151 -439.883 1.8403113e-38
-777.98102 -663.46997 -436.961 1.8403113e-38
-743.42102 -624.25098 -438.91501 1.8403113e-38
-722.70099 -601.54797 -439.87 1.8403113e-38
-696.51898 -584.73999 -437.89999 1.8403113e-38
-674.492 -562.72302 -438.349 1.8403113e-38
-655.729 -547.62598 -437.75299 1.8403113e-38
-611.388 -511.64999 -436.42499 1.8403113e-38
-601.39801 -492.30801 -439.13101 1.8403113e-38
-564.94702 -459.06 -439.022 1.8403113e-38
-547.22101 -445.88199 -438.16901 1.8403113e-38
-533.79401 -427.35901 -439.80701 1.8403113e-38
-497.26999 -396.543 -439.03 1.8403113e-38
-478.04599 -384.42999 -437.522 1.8403113e-38
-467.07401 -367.07599 -439.45401 1.8403113e-38
-444.69601 -355.46899 -437.03201 1.8403113e-38
-431.57101 -338.61401 -438.29901 1.8403113e-38
-415.76501 -327.57401 -437.34799 1.8403113e-38
-401.47198 -311.233 -438.189 1.8403113e-38
-388.354 -300.57901 -437.79901 1.8403113e-38
-370.97101 -284.84 -437.716 1.8403113e-38
-366.35001 -274.21701 -439.41501 1.8403113e-38
-330.43399 -249.386 -437.18799 1.8403113e-38
-304.79599 -224.888 -437.40799 1.8403113e-38
-275.935 -201.481 -436.54199 1.8403113e-38
-265.63699 -187.164 -437.827 1.8403113e-38
-247.731 -178.881 -435.621 1.8403113e-38
-243.032 -164.28 -438.36499 1.8403113e-38
-233.56 -155.26801 -438.43701 1.8403113e-38
-217.255 -142.491 -437.828 1.8403113e-38
-201.905 -134.63 -436.14001 1.8403113e-38
-190.256 -121.648 -436.73499 1.8403113e-38
-178.55701 -113.549 -436.01199 1.8403113e-38
-172.468 -99.958504 -438.14301 1.8403113e-38
-156.83099 -92.816498 -436.19199 1.8403113e-38
-155.31599 -78.589203 -439.62201 1.8403113e-38
-137.657 -72.144897 -436.98499 1.8403113e-38
-131.30299 -59.105999 -438.90302 1.8403113e-38
-115.403 -52.648701 -436.70401 1.8403113e-38
-106.134 -40.553699 -437.64999 1.8403113e-38
-100.356 -31.990299 -438.513 1.8403113e-38
-82.625 -22.2822 -436.73099 1.8403113e-38
-68.364998 -16.0921 -434.86499 1.8403113e-38
-62.606998 -3.69486 -436.759 1.8403113e-38
-46.3927 1.67389 -434.19101 1.8403113e-38
-44.197899 14.8673 -437.177 1.8403113e-38
-32.448898 21.292299 -435.99399 1.8403113e-38
-20.090401 31.233801 -435.60101 1.8403113e-38
-10.0505 37.949902 -434.91901 1.8403113e-38
2.3557501 47.504299 -434.41 1.8403113e-38
8.0059996 55.514 -435.15701 1.8403113e-38
19.568199 65.034203 -434.84799 1.8403113e-38
33.436199 70.016502 -432.75601 1.8403113e-38
33.4342 83.445999 -436.34799 1.8403113e-38
52.744202 86.164101 -432.30701 1.8403113e-38
55.527901 98.416397 -434.896 1.8403113e-38
63.417198 105.353 -434.80301 1.8403113e-38
73.361801 114.594 -434.819 1.8403113e-38
88.378601 118.41 -432.13101 1.8403113e-38
93.123497 129.563 -433.94199 1.8403113e-38
104.741 134.629 -432.42801 1.8403113e-38
106.132 147.16701 -435.43799 1.8403113e-38
123.022 149.64999 -431.93201 1.8403113e-38
127.092 160.817 -433.91299 1.8403113e-38
138.062 165.883 -432.55899 1.8403113e-38
143.08099 176.463 -434.14899 1.8403113e-38
148.269 184.373 -434.983 1.8403113e-38
155.916 193.498 -435.535 1.8403113e-38
169.618 196.886 -433.05801 1.8403113e-38
179.783 204.37199 -432.54999 1.8403113e-38
186.099 211.619 -432.92801 1.8403113e-38
189.73 222.582 -434.96301 1.8403113e-38
204.386 225.022 -431.99701 1.8403113e-38
208.10001 235.81 -433.965 1.8403113e-38
216.355 241.92 -433.561 1.8403113e-38
225.793 249.099 -433.14999 1.8403113e-38
234.965 254.563 -432.34601 1.8403113e-38
237.289 266.07999 -434.853 1.8403113e-38
252.114 267.80499 -431.65302 1.8403113e-38
256.10101 278.13199 -433.42999 1.8403113e-38
264.746 283.87 -432.82999 1.8403113e-38
268.07001 294.61301 -434.883 1.8403113e-38
283.76099 295.327 -431.19901 1.8403113e-38
283.35599 308.681 -434.87 1.8403113e-38
296.81699 310.84 -432.12399 1.8403113e-38
303.328 319.026 -432.70499 1.8403113e-38
310.11899 326.125 -432.927 1.8403113e-38
313.73901 336.47101 -434.79999 1.8403113e-38
325.129 340.00101 -432.931 1.8403113e-38
331.02899 348.42801 -433.728 1.8403113e-38
336.72 356.603 -434.509 1.8403113e-38
344.14099 363.67099 -434.56699 1.8403113e-38
353.58499 368.733 -433.58801 1.8403113e-38
360.323 376.211 -433.92401 1.8403113e-38
367.09 383.66101 -434.246 1.8403113e-38
374.57999 390.33499 -434.181 1.8403113e-38
387.70901 391.95001 -431.371 1.8403113e-38
390.41699 402.91501 -433.63501 1.8403113e-38
403.604 404.34299 -430.76099 1.8403113e-38
409.76401 411.89401 -431.259 1.8403113e-38
417.673 418.43399 -431.05499 1.8403113e-38
421.267 428.51599 -432.86401 1.8403113e-38
437.60599 440.20999 -431.95599 1.8403113e-38
447.771 444.535 -430.603 1.8403113e-38
452.82999 452.987 -431.61401 1.8403113e-38
468.246 465.5 -431.15399 1.8403113e-38
524.966 521.86603 -432.22198 1.8403113e-38
543.08698 530.84399 -430.14899 1.8403113e-38
566.05402 552.15302 -430.17599 1.8403113e-38
570.68597 561.06897 -431.41699 1.8403113e-38
585.20801 575.51099 -431.69299 1.8403113e-38
-845.42999 -781.37097 -422.086 1.8403113e-38
-843.48499 -759.789 -427.37701 1.8403113e-38
435.871 428.22101 -429.17899 1.8403113e-38
466.237 453.67999 -428.48901 1.8403113e-38
479.87299 468.155 -428.99301 1.8403113e-38
485.664 475.58701 -429.55099 1.8403113e-38
497.95801 477.35101 -426.987 1.8403113e-38
502.00201 486.79599 -428.51401 1.8403113e-38
510.272 493.54999 -428.27802 1.8403113e-38
515.02197 502.159 -429.40799 1.8403113e-38
526.34698 505.12 -427.40302 1.8403113e-38
540.922 518.685 -427.43201 1.8403113e-38
553.573 535.10101 -428.698 1.8403113e-38
560.21399 541.021 -428.64099 1.8403113e-38
583.54797 561.97803 -428.48401 1.8403113e-38
599.16498 574.67999 -428.02499 1.8403113e-38
602.98102 584.93799 -429.82599 1.8403113e-38
614.04498 588.75598 -428.11499 1.8403113e-38
618.95697 597.29199 -429.185 1.8403113e-38
631.09399 599.35699 -426.73999 1.8403113e-38
637.01202 606.11499 -427.086 1.8403113e-38
651.04199 604.71698 -423.24799 1.8403113e-38
680.23602 635.32397 -424.224 1.8403113e-38
683.41199 647.56702 -426.71399 1.8403113e-38
695.56299 649.92102 -424.34399 1.8403113e-38
700.53998 658.66602 -425.453 1.8403113e-38
706.487 674.61798 -428.25101 1.8403113e-38
714.00201 678.11798 -427.33099 1.8403113e-38
727.20398 678.492 -424.17099 1.8403113e-38
731.69098 688.74298 -425.80499 1.8403113e-38
740.24298 700.31403 -426.78699 1.8403113e-38
744.59698 711.367 -428.668 1.8403113e-38
755.276 718.513 -427.94199 1.8403113e-38
762.55603 722.40503 -427.185 1.8403113e-38
773.43701 729.44098 -426.38 1.8403113e-38
778.79102 738.50598 -427.48199 1.8403113e-38
789.92297 745.44897 -426.59 1.8403113e-38
798.20398 746.32098 -424.77899 1.8403113e-38
809.50897 753.13501 -423.81 1.8403113e-38
813.35602 767.35999 -426.664 1.8403113e-38
826.37402 769.55499 -424.03601 1.8403113e-38
1111.4 1027.25 -422.573 1.8403113e-38
-843.42297 -816.85901 -412.10101 1.8403113e-38
-845.63599 -796.04999 -418.21201 1.8403113e-38
665.93103 594.70203 -416.89401 1.8403113e-38
673.61102 604.67902 -417.66501 1.8403113e-38
676.89099 616.08197 -419.905 1.8403113e-38
1183.97 1065.75 -414.95001 1.8403113e-38
1200.37 1078.39 -414.27899 1.8403113e-38
1261.59 1126.72 -412.08701 1.8403113e-38
1281.1899 1164.83 -417.439 1.8403113e-38
1291.63 1181.66 -419.35999 1.8403113e-38
1400.11 1257.64 -412.896 1.8403113e-38
1450.25 1330.46 -419.987 1.8403113e-38
1472.03 1344.5601 -418.38101 1.8403113e-38
1485.29 1359.8 -419.18201 1.8403113e-38
1507.29 1371.65 -416.918 1.8403113e-38
1521.77 1390.41 -418.36099 1.8403113e-38
1545.74 1408.59 -417.30399 1.8403113e-38
1561.4399 1429.88 -419.11899 1.8403113e-38
1585.51 1444.79 -417.164 1.8403113e-38
1596.8199 1444.74 -414.35599 1.8403113e-38
1625.87 1477.35 -415.90601 1.8403113e-38
1644.26 1503.58 -418.38 1.8403113e-38
1669.9301 1518.59 -416.05499 1.8403113e-38
1686.74 1535.87 -416.52399 1.8403113e-38
1712.25 1547.59 -413.35999 1.8403113e-38
1733.73 1578.61 -416.35101 1.8403113e-38
1759.9301 1589.85 -412.888 1.8403113e-38
1780.22 1613.79 -414.28 1.8403113e-38
1940.74 1749.46 -410.927 1.8403113e-38
-846.50897 -853.78601 -402.98801 1.8403113e-38
-846.17102 -832.20099 -408.677 1.8403113e-38
1129.15 967.245 -402.14301 1.8403113e-38
1105.75 971.58801 -409.08099 1.8403113e-38
1136.95 971.69501 -401.40799 1.8403113e-38
1152.03 980.815 -400.12299 1.8403113e-38
1208.42 1059.09 -407.129 1.8403113e-38
1224.52 1057.96 -402.85199 1.8403113e-38
1233.28 1067.46 -403.23099 1.8403113e-38
1249.74 1070.95 -400.10001 1.8403113e-38
1408.3 1247.45 -408.147 1.8403113e-38
1803.42 1613.3 -408.42099 1.8403113e-38
1819.97 1623.6899 -407.11401 1.8403113e-38
1862.12 1638.41 -400.642 1.8403113e-38
1159.92 985.08099 -399.314 1.8403113e-38
1175.3199 997.87799 -398.93399 1.8403113e-38
1825.24 1569.66 -391.36099 1.8403113e-38
-999.23499 -1067.78 -383.474 1.8403113e-38
-996.737 -1050.3101 -387.52899 1.8403113e-38
-716.39099 -834.36798 -376.05301 1.8403113e-38
1302.2 1016.52 -372.591 1.8403113e-38
1405.53 1114.53 -373.28601 1.8403113e-38
1848.6899 1534.11 -376.069 1.8403113e-38
1899.01 1572.11 -373.802 1.8403113e-38
883.08002 609.96997 -367.35999 1.8403113e-38
1099.79 819.90997 -369.992 1.8403113e-38
1291.61 985.35303 -366.87201 1.8403113e-38
1324.52 1003.89 -363.702 1.8403113e-38
1318.1899 1016.44 -368.62299 1.8403113e-38
1345.4299 1012.685 -360.89099 1.8403113e-38
1888.22 1510.63 -360.02802 1.8403113e-38
902.91199 583.16998 -355.297 1.8403113e-38
985.83301 643.677 -351.00299 1.8403113e-38
-599.396 -855.40698 -341.54001 1.8403113e-38
-605.90302 -837.50897 -347.93201 1.8403113e-38
926.27002 563.95203 -344.39001 1.8403113e-38
912.79999 571.00598 -349.603 1.8403113e-38
942.26398 570.02002 -342.064 1.8403113e-38
981.44702 634.40601 -349.60699 1.8403113e-38
-601.46698 -888.52698 -333.194 1.8403113e-38
-607.30499 -870.34497 -339.49799 1.8403113e-38
935.41302 552.39801 -339.043 1.8403113e-38
950.45697 561.01703 -337.633 1.8403113e-38
965.70099 569.40198 -336.112 1.8403113e-38
958.14398 576.74902 -339.94199 1.8403113e-38
976.36603 572.95599 -334.42899 1.8403113e-38
981.33197 576.612 -334.17999 1.8403113e-38
1101.63 694.315 -335.952 1.8403113e-38
1867.78 1400.66 -335.668 1.8403113e-38
-600.55902 -900.91803 -329.65701 1.8403113e-38
1092.34 652.39001 -327.035 1.8403113e-38
1857.53 1347.03 -323.858 1.8403113e-38
1017.79 532.29303 -313.328 1.8403113e-38
1880 1348.24 -318.63 1.8403113e-38
1890.58 1346.65 -315.595 1.8403113e-38
2782.6699 2175.1001 -316.86401 1.8403113e-38
1026.3101 511.992 -305.79401 1.8403113e-38
1037.42 510.29901 -302.599 1.8403113e-38
1052.3 515.35699 -300.27802 1.8403113e-38
1040.01 524.75702 -305.82501 1.8403113e-38
1094.71 561.58502 -302.16901 1.8403113e-38
1910.42 1341.14 -309.22198 1.8403113e-38
1921.3199 1340.2 -306.27899 1.8403113e-38
2816.74 2171.6101 -307.522 1.8403113e-38
2841.4099 2174.27 -302.14099 1.8403113e-38
1057.61 510.72501 -297.72601 1.8403113e-38
1067.63 517.31201 -297.01401 1.8403113e-38
1071.8101 521.10199 -296.99701 1.8403113e-38
1083.9351 531.81549 -296.86749 1.8403113e-38
1939.09 1329.89 -299.133 1.8403113e-38
1949.9 1328.7 -296.147 1.8403113e-38
1971.38 1326.17 -290.16699 1.8403113e-38
2887.95 2188.26 -294.39099 1.8403113e-38
1985.1899 1330.9399 -288.03201 1.8403113e-38
-347.44101 -866.81201 -276.28 1.8403113e-38
-327.00699 -869.95001 -270.39499 1.8403113e-38
-268.91199 -866.89801 -256.867 1.8403113e-38
-250.396 -869.68201 -251.55099 1.8403113e-38
1920.9 1155.87 -257.09201 1.8403113e-38
2706.47 1890.62 -259.60599 1.8403113e-38
-316.21201 -970.19501 -240.923 1.8403113e-38
-228.54601 -888.30798 -241.175 1.8403113e-38
-228.64 -878.94598 -243.701 1.8403113e-38
2102.3899 1286.91 -247.321 1.8403113e-38
2124.99 1284.4 -241.07001 1.8403113e-38
-294.35001 -971.276 -235.23599 1.8403113e-38
-244.037 -921.80103 -236.043 1.8403113e-38
-237.07401 -909.34003 -237.65601 1.8403113e-38
2016.86 1156.0601 -233.448 1.8403113e-38
2131.8401 1275.62 -237.03101 1.8403113e-38
2616.97 1714.39 -234.578 1.8403113e-38
-264.767 -976.89502 -226.429 1.8403113e-38
-238.423 -975.12 -220.399 1.8403113e-38
1815.1 928.375 -222.38 1.8403113e-38
2151.7 1248.54 -224.888 1.8403113e-38
2143.1001 1254.05 -228.48199 1.8403113e-38
2211.3601 1304.36 -225.08099 1.8403113e-38
2602.3899 1667.9 -225.746 1.8403113e-38
-198.10201 -974.90997 -210.49899 1.8403113e-38
1817.1899 895.93701 -213.188 1.8403113e-38
1824.01 894.65002 -211.16 1.8403113e-38
2580.95 1594.36 -211.37399 1.8403113e-38
-181.802 -976.784 -205.97301 1.8403113e-38
1838.16 885.88898 -205.326 1.8403113e-38
1847.28 888.77399 -203.84399 1.8403113e-38
2570.0801 1555.78 -203.744 1.8403113e-38
-149.735 -979.44098 -197.34599 1.8403113e-38
-131.689 -979.75098 -192.80701 1.8403113e-38
2579.05 1526.22 -193.62199 1.8403113e-38
2604.6699 1537.15 -190.22099 1.8403113e-38
-82.673798 -981.62201 -180.20399 1.8403113e-38
-91.753899 -977.565 -183.53101 1.8403113e-38
2627.3201 1525.5601 -181.528 1.8403113e-38
2642.0601 1521.77 -176.877 1.8403113e-38
-121.067 -1084.41 -162.198 1.8403113e-38
-39.3876 -1010.85 -161.69901 1.8403113e-38
-12.9593 -962.802 -168.02299 1.8403113e-38
15.2926 -955.70801 -162.94501 1.8403113e-38
2686.8501 1514.9 -163.98 1.8403113e-38
2674 1521.4399 -168.90199 1.8403113e-38
-58.0425 -1039.1801 -158.731 1.8403113e-38
0.342464 -980.77502 -159.933 1.8403113e-38
2705.53 1497.84 -154.80299 1.8403113e-38
-30.610001 -1050.14 -149.026 1.8403113e-38
3.73104 -1038.26 -143.72501 1.8403113e-38
2743.1399 1481.22 -141.073 1.8403113e-38
2718.1899 1491 -149.85001 1.8403113e-38
3270.1399 1984.2 -145.45599 1.8403113e-38
3494.3899 2181.3401 -142.80299 1.8403113e-38
-444.828 -1497.8 -131.591 1.8403113e-38
4.7739501 -1064.02 -136.57899 1.8403113e-38
26.1168 -1068.72 -130.05099 1.8403113e-38
24.982901 -1043.2 -137.157 1.8403113e-38
2755.6699 1474.05 -136.062 1.8403113e-38
2872.23 1566.85 -132.097 1.8403113e-38
-440.40201 -1535.2 -120.498 1.8403113e-38
-445.63101 -1523.42 -124.938 1.8403113e-38
39.485699 -1086.6899 -121.945 1.8403113e-38
29.0137 -1075.28 -127.581 1.8403113e-38
3256.5 1894.3101 -124.786 1.8403113e-38
-448.711 -1567 -114.046 1.8403113e-38
-74.920403 -1221.9 -114.037 1.8403113e-38
6.3319402 -1145.38 -114.438 1.8403113e-38
28.397301 -1121.23 -115.446 1.8403113e-38
37.576 -1096.45 -119.806 1.8403113e-38
3257.6201 1850.5601 -112.809 1.8403113e-38
-449.965 -1610.3199 -102.77 1.8403113e-38
-440.685 -1576.97 -109.397 1.8403113e-38
3252.1899 1817.66 -105.35 1.8403113e-38
-450.18701 -1653.97 -91.153198 1.8403113e-38
-443.116 -1621.52 -98.085403 1.8403113e-38
3257.1499 1779.24 -93.856102 1.8403113e-38
-448.332 -1669.59 -86.516602 1.8403113e-38
3254.3201 1750.17 -86.777603 1.8403113e-38
-452.35199 -1718.13 -74.529297 1.8403113e-38
-453.20001 -1701.11 -79.290199 1.8403113e-38
3250.54 1704.26 -75.435898 1.8403113e-38
-455.16101 -1767.11 -62.1269 1.8403113e-38
-456.56299 -1749.96 -67.058197 1.8403113e-38
3270.51 1698.45 -68.949097 1.8403113e-38
-460.19601 -1800.5601 -54.4249 1.8403113e-38
3324.8601 1683.65 -51.572102 1.8403113e-38
3328.8101 1712.8101 -58.3965 1.8403113e-38
-967.474 -2317.45 -41.455101 1.8403113e-38
-611.45203 -1957 -49.9366 1.8403113e-38
3328.45 1646.03 -40.627102 1.8403113e-38
