# .PCD v0.7 - Point Cloud Data file format
VERSION 0.7
FIELDS x y z rgb
SIZE 4 4 4 4
TYPE F F F F
COUNT 1 1 1 1
WIDTH 357
HEIGHT 1
VIEWPOINT 0 0 0 1 0 0 0
POINTS 357
DATA ascii
1323.4399 -1141.27 -281.33701 1.8403113e-38
1327.13 -1105.9 -282.67801 1.8403113e-38
1328.52 -1032.47 -283.185 1.8403113e-38
1325.4301 -993.92902 -282.061 1.8403113e-38
1330.77 -964.18103 -284.004 1.8403113e-38
1325.58 -942.66803 -282.116 1.8403113e-38
1331.08 -930.76501 -284.11801 1.8403113e-38
1334.97 -885.13898 -285.53201 1.8403113e-38
1330.1801 -865.40997 -283.789 1.8403113e-38
1321.26 -782.77301 -280.54099 1.8403113e-38
1320.12 -724.81702 -280.12799 1.8403113e-38
1319.86 -567.117 -280.035 1.8403113e-38
1320.52 -542.87402 -280.27399 1.8403113e-38
1324.65 -450.06299 -281.776 1.8403113e-38
1325.7 -427.603 -282.16 1.8403113e-38
1322.8101 -403.90601 -281.10699 1.8403113e-38
1323.42 -392.961 -281.327 1.8403113e-38
1323.03 -381.71701 -281.18799 1.8403113e-38
1321.65 -370.202 -280.686 1.8403113e-38
1322.86 -359.64401 -281.12399 1.8403113e-38
1322.28 -337.694 -280.91501 1.8403113e-38
1324.11 -327.457 -281.57999 1.8403113e-38
1327.66 -317.746 -282.87201 1.8403113e-38
1319.97 -294.19601 -280.073 1.8403113e-38
1325.08 -284.98401 -281.93201 1.8403113e-38
1320.98 -273.36401 -280.439 1.8403113e-38
1327.13 -253.884 -282.67999 1.8403113e-38
1320.9399 -211.02901 -280.427 1.8403113e-38
1321.71 -200.911 -280.70499 1.8403113e-38
1324.24 -191.125 -281.62701 1.8403113e-38
1326.7 -181.30701 -282.521 1.8403113e-38
1320.71 -170.129 -280.341 1.8403113e-38
1321.9 -129.84399 -280.77499 1.8403113e-38
1320.33 -9.9307899 -280.20401 1.8403113e-38
1324.7 29.9202 -281.79501 1.8403113e-38
1322.17 49.769699 -280.87299 1.8403113e-38
1323.0699 69.778503 -281.20001 1.8403113e-38
1339.42 214.673 -287.15302 1.8403113e-38
1319.97 294.19601 -280.073 1.8403113e-38
1323.13 316.41 -281.224 1.8403113e-38
1324.11 327.457 -281.57999 1.8403113e-38
1323.1899 337.978 -281.24301 1.8403113e-38
1325.76 349.67599 -282.18201 1.8403113e-38
1320.17 358.742 -280.14499 1.8403113e-38
1324.8199 382.35199 -281.83701 1.8403113e-38
1330.78 499.63199 -284.00699 1.8403113e-38
1320.71 518.78101 -280.34201 1.8403113e-38
1344.67 518.18201 -289.06201 1.8403113e-38
1293.52 -1708.37 -270.44699 1.8403113e-38
1293.49 -1676.11 -270.435 1.8403113e-38
1295.63 -1648.13 -271.215 1.8403113e-38
1294.21 -1615.29 -270.69601 1.8403113e-38
1296.09 -1588.34 -271.383 1.8403113e-38
1297.0699 -1560.66 -271.73901 1.8403113e-38
1297.13 -1532.28 -271.759 1.8403113e-38
1298.47 -1506.4301 -272.24899 1.8403113e-38
1296.13 -1449.46 -271.397 1.8403113e-38
1304.1801 -1359.6 -274.32599 1.8403113e-38
1308.04 -1340.58 -275.73099 1.8403113e-38
1309.23 -1318.54 -276.164 1.8403113e-38
1303.36 -1288.29 -274.026 1.8403113e-38
1315.12 -1279.96 -278.31 1.8403113e-38
1310.49 -1252.2 -276.62299 1.8403113e-38
1316.27 -1237.15 -278.728 1.8403113e-38
1305.87 -1203.8101 -274.94101 1.8403113e-38
1316.35 -1194.6899 -278.755 1.8403113e-38
1318.92 -1176.84 -279.69299 1.8403113e-38
1314.04 -1151.1899 -277.91599 1.8403113e-38
1319.36 -1117.25 -279.85001 1.8403113e-38
1315.7 -1075.21 -278.521 1.8403113e-38
1313.49 -1054.37 -277.71301 1.8403113e-38
1311.7 -1034.33 -277.06299 1.8403113e-38
1319.35 -1005.86 -279.84799 1.8403113e-38
1318.53 -970.27502 -279.55099 1.8403113e-38
1316.61 -902.02301 -278.85101 1.8403113e-38
1311.38 -881.62701 -276.94601 1.8403113e-38
1313.8199 -836.91498 -277.83401 1.8403113e-38
1316.08 -823.487 -278.65701 1.8403113e-38
1315.91 -808.33801 -278.59399 1.8403113e-38
1313.26 -791.53497 -277.63 1.8403113e-38
1307.38 -758.26501 -275.48999 1.8403113e-38
1314.34 -748.97803 -278.02399 1.8403113e-38
1314.14 -734.71802 -277.95001 1.8403113e-38
1313.27 -706.38202 -277.63599 1.8403113e-38
1317.42 -695.44501 -279.146 1.8403113e-38
1316.64 -681.39502 -278.862 1.8403113e-38
1318.95 -669.44299 -279.702 1.8403113e-38
1310.5601 -651 -276.64999 1.8403113e-38
1315.86 -641.13501 -278.578 1.8403113e-38
1317.79 -629.28302 -279.28 1.8403113e-38
1318.78 -616.966 -279.64099 1.8403113e-38
1313.84 -601.39301 -277.84399 1.8403113e-38
1316.24 -590.11499 -278.71399 1.8403113e-38
1313.5 -576.11401 -277.71799 1.8403113e-38
1316.03 -552.78601 -278.638 1.8403113e-38
1315.5601 -528.27301 -278.46899 1.8403113e-38
1314.72 -515.87799 -278.164 1.8403113e-38
1314.62 -503.94699 -278.12701 1.8403113e-38
1316.99 -493.25201 -278.98901 1.8403113e-38
1316.67 -481.38101 -278.87201 1.8403113e-38
1314.5 -468.78699 -278.082 1.8403113e-38
1314.8199 -457.39401 -278.198 1.8403113e-38
1311.63 -433.267 -277.03799 1.8403113e-38
1317.6899 -413.16 -279.24399 1.8403113e-38
1316.78 -346.75299 -278.91101 1.8403113e-38
1318.42 -304.371 -279.51001 1.8403113e-38
1318.6 -262.293 -279.57401 1.8403113e-38
1316.3 -240.97 -278.73901 1.8403113e-38
1319.16 -231.267 -279.77899 1.8403113e-38
1317.33 -220.575 -279.11099 1.8403113e-38
1314.62 -159.075 -278.12399 1.8403113e-38
1319.61 -149.713 -279.94101 1.8403113e-38
1318.9301 -139.53999 -279.694 1.8403113e-38
1311.71 -118.64 -277.06601 1.8403113e-38
1312.64 -108.785 -277.40601 1.8403113e-38
1314.4301 -99.008904 -278.056 1.8403113e-38
1317.0699 -89.2864 -279.01901 1.8403113e-38
1318.7 -79.452599 -279.612 1.8403113e-38
1316.5 -69.351097 -278.81 1.8403113e-38
1313.27 -59.244301 -277.63599 1.8403113e-38
1311.84 -49.289902 -277.11499 1.8403113e-38
1317.84 -39.645802 -279.298 1.8403113e-38
1316.25 -29.684601 -278.71799 1.8403113e-38
1313.63 -19.738701 -277.76599 1.8403113e-38
1308.15 0 -275.77301 1.8403113e-38
1315.63 9.8871603 -278.49399 1.8403113e-38
1314.5699 19.7561 -278.108 1.8403113e-38
1316.9 39.610901 -278.95599 1.8403113e-38
1314.21 59.2966 -277.978 1.8403113e-38
1314.02 79.103798 -277.90601 1.8403113e-38
1318.01 89.364899 -279.35999 1.8403113e-38
1319.11 99.444702 -279.76001 1.8403113e-38
1315.45 109.072 -278.427 1.8403113e-38
1313.58 118.849 -277.746 1.8403113e-38
1314.4301 128.938 -278.05701 1.8403113e-38
1311.47 138.565 -276.978 1.8403113e-38
1315.88 149.19099 -278.58401 1.8403113e-38
1315.55 159.214 -278.46301 1.8403113e-38
1315.13 169.242 -278.311 1.8403113e-38
1311.85 178.80499 -277.116 1.8403113e-38
1316.83 189.80499 -278.92899 1.8403113e-38
1315.23 199.69501 -278.34799 1.8403113e-38
1307.1899 228.675 -275.422 1.8403113e-38
1314.5601 220.00301 -278.104 1.8403113e-38
1301.4399 247.823 -273.32999 1.8403113e-38
1316.3 240.97 -278.73901 1.8403113e-38
1311.27 260.49301 -276.90799 1.8403113e-38
1312.0699 302.55899 -277.198 1.8403113e-38
1317.1899 368.65701 -279.06 1.8403113e-38
1313.8 394.96149 -277.828 1.8403113e-38
1293.85 403.92599 -270.56601 1.8403113e-38
1304.36 452.89899 -274.39301 1.8403113e-38
1311.9 467.63901 -277.134 1.8403113e-38
1318.4 482.16199 -279.50201 1.8403113e-38
1317.27 529.11798 -279.08899 1.8403113e-38
1318.85 1929.1899 -279.664 1.8403113e-38
1302.05 1937.3 -273.54999 1.8403113e-38
1313.42 1998.34 -277.69 1.8403113e-38
1278.53 -3576.5801 -264.98901 1.8403113e-38
1283.23 -3483.9299 -266.702 1.8403113e-38
1282.4301 -3378.1499 -266.41101 1.8403113e-38
1283.86 -3284.99 -266.92999 1.8403113e-38
1286.28 -3199.6299 -267.81201 1.8403113e-38
1287.39 -3114.49 -268.21399 1.8403113e-38
1285.25 -3023.9299 -267.435 1.8403113e-38
1289.9301 -2957.0701 -269.13901 1.8403113e-38
1282.48 -2859.5601 -266.42899 1.8403113e-38
1285.23 -2794.04 -267.42899 1.8403113e-38
1288.04 -2731.48 -268.45099 1.8403113e-38
1288.1 -2664.47 -268.474 1.8403113e-38
1283.84 -2589.3799 -266.92401 1.8403113e-38
1288.55 -2539.3401 -268.63699 1.8403113e-38
1279.52 -2458.3501 -265.35101 1.8403113e-38
1286 -2416.8601 -267.70999 1.8403113e-38
1283.54 -2356.3999 -266.814 1.8403113e-38
1286.64 -2310.6201 -267.94299 1.8403113e-38
1284.13 -2254.1799 -267.02899 1.8403113e-38
1287.9 -2213.1699 -268.401 1.8403113e-38
1285.53 -2160.6899 -267.539 1.8403113e-38
1281.95 -2107.54 -266.23499 1.8403113e-38
1281.99 -2063.45 -266.24899 1.8403113e-38
1281.83 -2020.4 -266.19199 1.8403113e-38
1283.78 -1982.76 -266.90201 1.8403113e-38
1281.96 -1939.15 -266.237 1.8403113e-38
1282.78 -1901.79 -266.53799 1.8403113e-38
1283.08 -1864.5699 -266.64499 1.8403113e-38
1285.26 -1831.77 -267.44 1.8403113e-38
1287.48 -1799.92 -268.246 1.8403113e-38
1288.25 -1766.48 -268.52899 1.8403113e-38
1291.59 -1738.23 -269.74399 1.8403113e-38
1287.6 -1463.9 -268.29199 1.8403113e-38
1281.37 -1403.45 -266.02301 1.8403113e-38
1275.87 -1371.13 -264.02301 1.8403113e-38
1288.85 -1363.89 -268.74701 1.8403113e-38
1291.74 265.89401 -269.797 1.8403113e-38
1290.4301 275.79099 -269.32101 1.8403113e-38
1279.05 409.04199 -265.181 1.8403113e-38
1278.29 419.64899 -264.90399 1.8403113e-38
1289.6801 435.40302 -269.047 1.8403113e-38
1244.84 -3688.3601 -252.728 1.8403113e-38
1257.97 -3617.6299 -257.50601 1.8403113e-38
1256.45 1930.29 -256.953 1.8403113e-38
1253.58 1965.03 -255.911 1.8403113e-38
1252.4301 2004.29 -255.491 1.8403113e-38
1258.95 2060.53 -257.86499 1.8403113e-38
1230.62 497.23999 -247.55099 1.8403113e-38
1192.71 -3613.6101 -233.754 1.8403113e-38
1198.9301 1979.8199 -236.019 1.8403113e-38
1207.8199 2042.24 -239.25301 1.8403113e-38
1161.8199 -3617.3899 -222.513 1.8403113e-38
1182.38 2032.17 -229.996 1.8403113e-38
1153.87 468.61899 -219.617 1.8403113e-38
1140.74 472.077 -214.838 1.8403113e-38
1149.39 487.13199 -217.98801 1.8403113e-38
1144.53 494.99399 -216.21899 1.8403113e-38
1142.9301 504.68201 -215.63499 1.8403113e-38
1144.54 516.28601 -216.22 1.8403113e-38
1137.8 523.10901 -213.769 1.8403113e-38
1147.48 2000.13 -217.29201 1.8403113e-38
1132.63 2012 -211.888 1.8403113e-38
1132.08 2057.4199 -211.686 1.8403113e-38
1112.88 2060.04 -204.698 1.8403113e-38
1077.49 2072.0601 -191.819 1.8403113e-38
1099.7 2077.1399 -199.901 1.8403113e-38
1054.96 484.052 -183.619 1.8403113e-38
1045.2 507.827 -180.064 1.8403113e-38
1063.1 509.061 -186.57899 1.8403113e-38
1071.3101 504 -189.56799 1.8403113e-38
1055.08 2065.79 -183.66 1.8403113e-38
1051.84 2109.3401 -182.48 1.8403113e-38
1039.1899 -3243.29 -177.87801 1.8403113e-38
1031.41 2108.3301 -175.045 1.8403113e-38
994.59497 -4487.77 -161.646 1.8403113e-38
1005 -4329.27 -165.43201 1.8403113e-38
1004.07 -4122.8301 -165.095 1.8403113e-38
1003.56 -3936.3601 -164.911 1.8403113e-38
1002.21 -3760.98 -164.418 1.8403113e-38
999.46503 -3592.77 -163.41901 1.8403113e-38
998.24701 -3444.3999 -162.976 1.8403113e-38
995.31299 -3299.25 -161.908 1.8403113e-38
1012.56 -3250.49 -168.187 1.8403113e-38
1008.15 493.76099 -166.58099 1.8403113e-38
1013.64 507.133 -168.577 1.8403113e-38
990.46002 2104.7 -160.14101 1.8403113e-38
1010.72 2106.1599 -167.51601 1.8403113e-38
963.43597 492.354 -150.30499 1.8403113e-38
970.28003 2103.03 -152.79601 1.8403113e-38
958.07599 -4496.48 -148.354 1.8403113e-38
953.97302 476.58499 -146.86099 1.8403113e-38
938.89301 493.767 -141.37199 1.8403113e-38
948.401 491.224 -144.83299 1.8403113e-38
919.854 -4493.98 -134.44299 1.8403113e-38
908.151 498.82401 -130.183 1.8403113e-38
914.526 494.423 -132.50301 1.8403113e-38
922.427 491.07401 -135.379 1.8403113e-38
882.00403 -4493.1001 -120.667 1.8403113e-38
902.51501 503.73199 -128.132 1.8403113e-38
899.40802 519.96802 -127.001 1.8403113e-38
906.66901 516.30603 -129.644 1.8403113e-38
887.07898 528.85303 -122.514 1.8403113e-38
892.883 524.14301 -124.626 1.8403113e-38
881.24701 533.495 -120.391 1.8403113e-38
880.39697 812.52002 -120.082 1.8403113e-38
877.57898 539.95697 -119.056 1.8403113e-38
878.23499 1110.89 -119.295 1.8403113e-38
844.74298 -4495.8198 -107.105 1.8403113e-38
837.63702 770.92902 -104.518 1.8403113e-38
807.854 -4501.1602 -93.678101 1.8403113e-38
802.06799 483.41901 -91.572403 1.8403113e-38
805.49298 703.229 -92.818901 1.8403113e-38
814.914 754.43402 -96.247704 1.8403113e-38
813.33398 765.94598 -95.672699 1.8403113e-38
810.46399 775.89899 -94.628098 1.8403113e-38
779.76599 480.591 -83.454903 1.8403113e-38
794.48401 485.30499 -88.811996 1.8403113e-38
782.98853 496.48248 -84.627853 1.8403113e-38
774.04797 501.17899 -81.373703 1.8403113e-38
794.466 767.48901 -88.805397 1.8403113e-38
784.698 774.58099 -85.250099 1.8403113e-38
770.466 902.09302 -80.07 1.8403113e-38
769.43298 -4493.2598 -79.694099 1.8403113e-38
749.271 503.18701 -72.355698 1.8403113e-38
756.81403 501.95099 -75.101303 1.8403113e-38
767.83899 503.98999 -79.114098 1.8403113e-38
751.20898 514.047 -73.061203 1.8403113e-38
748.315 520.07501 -72.007896 1.8403113e-38
749.59003 539.92999 -72.471901 1.8403113e-38
745.83398 554.91101 -71.104797 1.8403113e-38
750.36603 550.29498 -72.754204 1.8403113e-38
748.95502 568.26202 -72.240799 1.8403113e-38
747.10498 586.341 -71.567497 1.8403113e-38
755.06897 585.39801 -74.466003 1.8403113e-38
746.04498 606.03198 -71.181503 1.8403113e-38
752.86298 603.65802 -73.6633 1.8403113e-38
753.26202 625.81403 -73.808296 1.8403113e-38
759.57599 758.755 -76.106499 1.8403113e-38
759.26398 772.46002 -75.992798 1.8403113e-38
760.89398 789.513 -76.585999 1.8403113e-38
752.82397 791.73102 -73.648804 1.8403113e-38
763.94598 824.71301 -77.697098 1.8403113e-38
761.258 836.15399 -76.718697 1.8403113e-38
763.46997 856.04199 -77.523804 1.8403113e-38
760.41498 867.55298 -76.411697 1.8403113e-38
740.70898 521.138 -69.239601 1.8403113e-38
693.68701 1368.17 -52.124901 1.8403113e-38
712.104 1385.6801 -58.828098 1.8403113e-38
680.96002 1367.48 -47.492599 1.8403113e-38
669.72998 1371.42 -43.405201 1.8403113e-38
642.50403 1362.73 -33.495899 1.8403113e-38
655.92499 1366.6801 -38.380501 1.8403113e-38
628.646 1356.73 -28.451799 1.8403113e-38
618.54199 1364.03 -24.7743 1.8403113e-38
578.74597 1348.63 -10.2897 1.8403113e-38
591.98199 1354.23 -15.1071 1.8403113e-38
605.08301 1358.72 -19.875401 1.8403113e-38
554.604 1345.76 -1.50291 1.8403113e-38
567.67401 1351.62 -6.2600098 1.8403113e-38
531.06403 1344.36 7.0650401 1.8403113e-38
543.97998 1350.48 2.3640399 1.8403113e-38
518.271 1338.11 11.7214 1.8403113e-38
507.28799 1340.54 15.7188 1.8403113e-38
471.28799 1329.49 28.821699 1.8403113e-38
483.38101 1334.28 24.420401 1.8403113e-38
494.672 1334.03 20.310801 1.8403113e-38
448.422 1326.47 37.144299 1.8403113e-38
460.53299 1332.47 32.736401 1.8403113e-38
415.48001 1329.53 49.134102 1.8403113e-38
426.50699 1328.9399 45.120602 1.8403113e-38
437.53699 1328.25 41.105999 1.8403113e-38
392.48099 1321.45 57.5051 1.8403113e-38
403.76999 1324.0601 53.396301 1.8403113e-38
358.944 1312.98 69.711502 1.8403113e-38
369.797 1312.9301 65.761398 1.8403113e-38
380.461 1310.78 61.880199 1.8403113e-38
336.936 1307.8101 77.721802 1.8403113e-38
347.58401 1305.96 73.846497 1.8403113e-38
303.99899 1291.77 89.7099 1.8403113e-38
325.69199 1299.5699 81.814201 1.8403113e-38
315.03299 1300.22 85.694 1.8403113e-38
301.48801 -511.18399 90.624001 1.8403113e-38
289.32901 -466.21899 95.049301 1.8403113e-38
293.33099 -467.836 93.592796 1.8403113e-38
300.784 -464.992 90.879997 1.8403113e-38
277.38901 -459.142 99.395203 1.8403113e-38
283.00549 -458.23151 97.351051 1.8403113e-38
283.02802 1301.55 97.342903 1.8403113e-38
293.798 1304.21 93.422897 1.8403113e-38
251 -522 109 1.8403113e-38
255.158 -506.98099 107.487 1.8403113e-38
263.25 -497.82901 104.541 1.8403113e-38
258.987 -486.92599 106.093 1.8403113e-38
265.79099 -450.72501 103.617 1.8403113e-38
273.62299 -459.37 100.766 1.8403113e-38
269.40399 -448.573 102.301 1.8403113e-38
251.00101 1297 109 1.8403113e-38
261.62799 1295.95 105.132 1.8403113e-38
272.40302 1304.8 101.21 1.8403113e-38
