# .PCD v0.7 - Point Cloud Data file format
VERSION 0.7
FIELDS x y z rgb
SIZE 4 4 4 4
TYPE F F F F
COUNT 1 1 1 1
WIDTH 356
HEIGHT 1
VIEWPOINT 0 0 0 1 0 0 0
POINTS 356
DATA ascii
-227.967 -846.14697 -430.16199 1.8403113e-38
-255.022 -770.38202 -431.84799 1.8403113e-38
-256.40701 -749.37701 -430.17899 1.8403113e-38
-271.34299 -700.94 -430.43301 1.8403113e-38
-317.81601 -540.05402 -430.17899 1.8403113e-38
-327.99899 -521.63 -431.84799 1.8403113e-38
-338.02899 -470.737 -430.13599 1.8403113e-38
-341.866 -462.97501 -430.681 1.8403113e-38
-352.729 -443.853 -432.51599 1.8403113e-38
-354.83801 -423.77899 -431.19601 1.8403113e-38
-364.659 -383.797 -430.52899 1.8403113e-38
-369.552 -363.61099 -430.17001 1.8403113e-38
-377.892 -343.27399 -430.99899 1.8403113e-38
-412.27301 -216.604 -430.02802 1.8403113e-38
-425.56799 -172.125 -430.11401 1.8403113e-38
-432.578 -149.339 -430.228 1.8403113e-38
-448.20001 -102.351 -430.86899 1.8403113e-38
-454.91901 -78.479202 -430.76999 1.8403113e-38
384.01001 -2904.74 -427.35199 1.8403113e-38
369.715 -2858.01 -427.55701 1.8403113e-38
353.47101 -2818.26 -429.15701 1.8403113e-38
341.134 -2768.47 -428.36401 1.8403113e-38
327.98499 -2717.9399 -427.77899 1.8403113e-38
316.42599 -2672.9399 -427.20499 1.8403113e-38
303.66199 -2628.24 -427.08301 1.8403113e-38
292.04199 -2590.9199 -427.31799 1.8403113e-38
279.36899 -2552.01 -427.758 1.8403113e-38
268.96701 -2514.6101 -427.55801 1.8403113e-38
256.79401 -2478.5801 -428.11801 1.8403113e-38
247.80701 -2440.1599 -427.32001 1.8403113e-38
234.86501 -2411.79 -428.93399 1.8403113e-38
228.94099 -2365.7 -426.28 1.8403113e-38
214.48 -2346.8501 -429.39899 1.8403113e-38
208.52699 -2305.51 -427.24301 1.8403113e-38
197.119 -2278.0801 -428.41699 1.8403113e-38
190.19701 -2244.3401 -427.37701 1.8403113e-38
177.952 -2222.5601 -429.422 1.8403113e-38
172.269 -2187.8601 -427.85101 1.8403113e-38
162.201 -2161.3899 -428.65601 1.8403113e-38
157.23399 -2127.6599 -426.93399 1.8403113e-38
147.045 -2104.02 -428.07001 1.8403113e-38
140.812 -2076.8 -427.45801 1.8403113e-38
130.338 -2055.9399 -428.979 1.8403113e-38
127.212 -2022.28 -426.62201 1.8403113e-38
115.704 -2006.02 -428.97601 1.8403113e-38
116.616 -1964.21 -424.37299 1.8403113e-38
102.875 -1955.25 -428.254 1.8403113e-38
98.982697 -1928.0601 -426.828 1.8403113e-38
93.007896 -1900.97 -426.13901 1.8403113e-38
86.895401 -1881.04 -426.23099 1.8403113e-38
77.383904 -1863.89 -427.79599 1.8403113e-38
77.733704 -1830.5601 -424.259 1.8403113e-38
66.788597 -1817.89 -426.78299 1.8403113e-38
66.750999 -1787.34 -423.66599 1.8403113e-38
57.917198 -1771.15 -425.09299 1.8403113e-38
54.858898 -1748.59 -423.849 1.8403113e-38
45.632999 -1734.17 -425.59299 1.8403113e-38
44.0289 -1709.9 -423.66699 1.8403113e-38
34.3507 -1697.21 -425.74799 1.8403113e-38
31.986799 -1675.5699 -424.35501 1.8403113e-38
23.1458 -1662.02 -426.056 1.8403113e-38
17.5753 -1647.1899 -426.48099 1.8403113e-38
13.352 -1626.04 -425.789 1.8403113e-38
14.0044 -1601.13 -423.008 1.8403113e-38
0.60862499 -1596.8199 -427.245 1.8403113e-38
0.80389398 -1573.62 -424.79999 1.8403113e-38
-8.8892803 -1563.4301 -427.142 1.8403113e-38
-10.7021 -1544.41 -425.82599 1.8403113e-38
-18.0355 -1530.9399 -427.00699 1.8403113e-38
-19.382999 -1511.95 -425.53201 1.8403113e-38
-25.815001 -1497.72 -426.32001 1.8403113e-38
-30.458401 -1484.38 -426.57501 1.8403113e-38
-37.087299 -1470.97 -427.51599 1.8403113e-38
-40.8661 -1456.79 -427.383 1.8403113e-38
-47.720299 -1444.1899 -428.487 1.8403113e-38
-48.913799 -1426.87 -427.12799 1.8403113e-38
-43.4506 -1398.09 -422.271 1.8403113e-38
-46.394402 -1384 -421.85599 1.8403113e-38
-48.3988 -1366.25 -420.737 1.8403113e-38
-67.451599 -1353.34 -426.069 1.8403113e-38
-54.5154 -1356.72 -421.897 1.8403113e-38
-76.471901 -1347.34 -428.604 1.8403113e-38
-76.589203 -1328.24 -426.68799 1.8403113e-38
-76.813698 -1311.84 -425.08701 1.8403113e-38
-87.639297 -1306.05 -428.27399 1.8403113e-38
-87.548698 -1289.66 -426.56299 1.8403113e-38
-93.143097 -1278.0601 -427.32901 1.8403113e-38
-92.0429 -1261.02 -425.198 1.8403113e-38
-97.333298 -1249.5 -425.86499 1.8403113e-38
-96.501198 -1233.24 -423.909 1.8403113e-38
-106.102 -1226.62 -426.58401 1.8403113e-38
-105.618 -1211.08 -424.823 1.8403113e-38
-112.989 -1194.95 -425.74399 1.8403113e-38
-123.526 -1182.16 -428.11401 1.8403113e-38
-121.761 -1166.01 -425.84201 1.8403113e-38
-185.27 -961.73297 -427.09299 1.8403113e-38
-178.48 -969.29999 -425.49701 1.8403113e-38
-191.92101 -941.79999 -427.37299 1.8403113e-38
-183.71201 -948.35101 -425.17801 1.8403113e-38
-191.73199 -929.43799 -426.04099 1.8403113e-38
-194.99001 -919.84998 -426.19601 1.8403113e-38
-208.97501 -904.73199 -429.53101 1.8403113e-38
-196.187 -908.48499 -425.45001 1.8403113e-38
-206.763 -891.35303 -427.388 1.8403113e-38
-213.743 -884.16602 -429.09 1.8403113e-38
-213.772 -872.19397 -427.87299 1.8403113e-38
-220.60699 -864.97198 -429.51999 1.8403113e-38
-212.12399 -848.54901 -424.875 1.8403113e-38
-225.936 -833.25299 -428.13101 1.8403113e-38
-232.47501 -825.97498 -429.66901 1.8403113e-38
-234.46201 -815.15601 -429.255 1.8403113e-38
-236.61301 -805.81299 -429.04901 1.8403113e-38
-232.44299 -792.18201 -426.19601 1.8403113e-38
-242.099 -786.44501 -428.98099 1.8403113e-38
-241.153 -774.375 -427.41299 1.8403113e-38
-249.578 -756.40503 -428.51401 1.8403113e-38
-249.84801 -735.16101 -426.43201 1.8403113e-38
-258.276 -728.815 -428.72601 1.8403113e-38
-262.04099 -718.67603 -429.00201 1.8403113e-38
-263.302 -709.62299 -428.51401 1.8403113e-38
-271.45499 -680.02802 -428.32999 1.8403113e-38
-265.33401 -689.46698 -427.159 1.8403113e-38
-274.15799 -671.68701 -428.41901 1.8403113e-38
-279.25601 -661.76703 -429.18301 1.8403113e-38
-280.009 -652.89001 -428.53601 1.8403113e-38
-284.96399 -642.81702 -429.23499 1.8403113e-38
-283.74301 -633.487 -427.85199 1.8403113e-38
-284.92001 -622.29498 -427.117 1.8403113e-38
-289.87299 -614.78101 -428.077 1.8403113e-38
-285.42001 -602.12 -425.224 1.8403113e-38
-292.96201 -595.29199 -427.159 1.8403113e-38
-298.38101 -585.01599 -427.99899 1.8403113e-38
-305.81 -578.05499 -429.88 1.8403113e-38
-295.47 -564.203 -424.849 1.8403113e-38
-309.202 -558.55603 -429.06699 1.8403113e-38
-306.953 -546.45599 -427.04099 1.8403113e-38
-315.39401 -527.89001 -428.08701 1.8403113e-38
-322.3475 -504.767 -428.14648 1.8403113e-38
-331.64899 -481.86899 -429.04901 1.8403113e-38
-323.94601 -489.061 -427.09601 1.8403113e-38
-337.785 -450.56699 -427.98499 1.8403113e-38
-339.07999 -430.62 -426.39301 1.8403113e-38
-350.38901 -411.32101 -428.366 1.8403113e-38
-352.85101 -403.478 -428.422 1.8403113e-38
-357.63 -391.492 -428.86301 1.8403113e-38
-361.72198 -371.36899 -428.23001 1.8403113e-38
-364.54099 -351.12799 -427.14099 1.8403113e-38
-374.582 -330.72501 -428.55701 1.8403113e-38
-376.45599 -322.84799 -428.405 1.8403113e-38
-373.89999 -310.293 -426.22601 1.8403113e-38
-386.96201 -302.02802 -429.94 1.8403113e-38
-386.41949 -285.34949 -428.04199 1.8403113e-38
-390.40601 -268.30399 -427.68799 1.8403113e-38
-389 -260.63501 -426.41101 1.8403113e-38
-384.92401 -248.00301 -423.69299 1.8403113e-38
-405.06601 -238.44 -429.74799 1.8403113e-38
-399.845 -225.748 -426.62399 1.8403113e-38
-406.85199 -203.86301 -426.82901 1.8403113e-38
-411.58301 -195.48 -427.62299 1.8403113e-38
-405.96701 -182.771 -424.35901 1.8403113e-38
-425.36899 -158.39999 -428.638 1.8403113e-38
-433.095 -135.297 -428.96899 1.8403113e-38
-436.38699 -126.793 -429.24799 1.8403113e-38
-430.14499 -113.905 -425.74701 1.8403113e-38
-443.59799 -88.965103 -427.89001 1.8403113e-38
-456.591 -63.490398 -429.81799 1.8403113e-38
-450.091 -57.019798 -426.88501 1.8403113e-38
-447.83701 -42.893299 -424.64999 1.8403113e-38
-461.53 -31.321199 -428.24701 1.8403113e-38
-457.18301 -17.5222 -425.315 1.8403113e-38
-466.04901 -6.9587798 -427.32901 1.8403113e-38
-461.46899 6.9112301 -424.30801 1.8403113e-38
-475.62201 19.291 -427.983 1.8403113e-38
-460.742 30.1464 -421.67401 1.8403113e-38
-482.87299 45.378899 -427.84201 1.8403113e-38
-475.97601 58.866001 -424.05099 1.8403113e-38
-491.448 72.430901 -428.065 1.8403113e-38
-491.539 88.542702 -426.44601 1.8403113e-38
-503.11301 101.186 -429.19299 1.8403113e-38
-502.00101 117.204 -427.16299 1.8403113e-38
-507.026 127.727 -427.84 1.8403113e-38
-504.737 143.539 -425.42099 1.8403113e-38
-518.46802 157.739 -428.76099 1.8403113e-38
-513.203 172.653 -425.39401 1.8403113e-38
-524.86798 186.407 -428.05899 1.8403113e-38
-518.43701 201.041 -424.314 1.8403113e-38
-532.46399 216.20799 -427.659 1.8403113e-38
-534.521 234.935 -426.45801 1.8403113e-38
-539.46002 246.414 -427.00699 1.8403113e-38
-540.29199 264.97699 -425.396 1.8403113e-38
-555.39697 281.65399 -428.96201 1.8403113e-38
-546.32098 295.80099 -424.34299 1.8403113e-38
-562.80902 313.67499 -428.26999 1.8403113e-38
-560.30103 331.45801 -425.57199 1.8403113e-38
-568.70001 345.66599 -427.04999 1.8403113e-38
-572.64801 367.31699 -426.20999 1.8403113e-38
-581.55902 382.25299 -427.79199 1.8403113e-38
-584.21002 403.79099 -426.51099 1.8403113e-38
-591.92902 418.508 -427.69901 1.8403113e-38
-595.80499 441.35199 -426.71201 1.8403113e-38
-600.67102 454.82199 -427.03201 1.8403113e-38
-638.47498 600.76501 -425.28101 1.8403113e-38
-649.125 620.02399 -427.02701 1.8403113e-38
-659.17798 650.85797 -427.379 1.8403113e-38
-662.99103 665.93597 -427.16599 1.8403113e-38
-670.01001 695.55298 -426.58301 1.8403113e-38
-681.23499 716.69598 -428.33701 1.8403113e-38
-681.34497 742.07898 -425.77399 1.8403113e-38
-690.51099 762.36499 -426.897 1.8403113e-38
-697.70502 794.14203 -426.15399 1.8403113e-38
-713.96002 820.91901 -429.08801 1.8403113e-38
-142.58299 -956.74701 -411.67401 1.8403113e-38
-576.742 461.25299 -418.01599 1.8403113e-38
-526.12903 440.24799 -402.491 1.8403113e-38
-624.19702 774.336 -402.51001 1.8403113e-38
-100.402 -950.37903 -396.289 1.8403113e-38
-84.542 -950.57703 -390.771 1.8403113e-38
-111.146 -946.487 -399.64301 1.8403113e-38
-503.26401 446.19901 -393.896 1.8403113e-38
-506.94901 479.19199 -391.802 1.8403113e-38
-582.34802 752.56897 -390.125 1.8403113e-38
-33.8722 -1067.98 -385.103 1.8403113e-38
-70.097504 -951.18903 -385.789 1.8403113e-38
-54.339199 -951.00098 -380.26599 1.8403113e-38
-486.711 445.41101 -388.19501 1.8403113e-38
-502.43301 486.31201 -389.495 1.8403113e-38
-574.87402 771.89801 -385.534 1.8403113e-38
-561.01599 772.77899 -380.604 1.8403113e-38
-43.0462 -953.40997 -376.56799 1.8403113e-38
-29.605101 -954.63202 -371.99899 1.8403113e-38
-894.53601 2002.38 -371.10101 1.8403113e-38
4.0273099 -1020.69 -367.021 1.8403113e-38
11.586 -995.28748 -361.7785 1.8403113e-38
6.579535 -976.18402 -361.57001 1.8403113e-38
-3.56287 -956.33801 -363.07901 1.8403113e-38
-9.5810404 -949.44501 -364.474 1.8403113e-38
-510.52301 754.37903 -364.85501 1.8403113e-38
-499.841 757.19098 -360.836 1.8403113e-38
-615.13702 1131.87 -362.71301 1.8403113e-38
7.5125399 -957.89099 -359.37 1.8403113e-38
-472.51999 758.01703 -351.20901 1.8403113e-38
-528.867 904.24902 -355.90601 1.8403113e-38
-527.17499 931.177 -352.556 1.8403113e-38
-523.18201 941.37097 -350.117 1.8403113e-38
-827.065 1956.9301 -352.194 1.8403113e-38
-459.73199 758.40302 -346.703 1.8403113e-38
-489.56 852.117 -347.51901 1.8403113e-38
-520.24597 967.74701 -346.38901 1.8403113e-38
-515.96198 977.89899 -343.853 1.8403113e-38
-807.11902 1957.1 -345.20999 1.8403113e-38
-426.147 752.5 -335.57901 1.8403113e-38
-426.31799 764.599 -334.39899 1.8403113e-38
-509.121 1000.78 -339.11801 1.8403113e-38
-779.79401 1969.05 -334.44199 1.8403113e-38
490.48099 -2256.51 -323.74899 1.8403113e-38
-736.17999 1931.95 -323.01199 1.8403113e-38
-724.56598 1967.52 -315.31 1.8403113e-38
-735.90503 2016.47 -314.25601 1.8403113e-38
514.422 -2180.0701 -307.55499 1.8403113e-38
-732.50403 2067.53 -307.83701 1.8403113e-38
-714.31201 2069.95 -301.23401 1.8403113e-38
-675.52399 2062.74 -288.427 1.8403113e-38
-657.97803 2065.49 -282.017 1.8403113e-38
551.11102 -2006.04 -276.91101 1.8403113e-38
-255.907 764.54102 -274.88901 1.8403113e-38
-249.06799 768.21997 -272.12299 1.8403113e-38
570.54498 -1936.58 -263.00601 1.8403113e-38
-215.304 755.85602 -261.59799 1.8403113e-38
1208.88 -3992.45 -250.713 1.8403113e-38
-202.144 751.64301 -257.43301 1.8403113e-38
-189.23 762.72101 -251.78799 1.8403113e-38
-309.08401 1141.65 -254.82201 1.8403113e-38
616.86798 -1882.36 -241.27299 1.8403113e-38
592.828 -1863.21 -247.707 1.8403113e-38
603.32898 -1867.1899 -244.44701 1.8403113e-38
-179.966 762.71802 -248.55299 1.8403113e-38
-160.69901 765.87799 -241.5 1.8403113e-38
-239.306 994.76501 -245.502 1.8403113e-38
-237.463 1006.85 -243.62 1.8403113e-38
1214.51 -3811.3101 -230.186 1.8403113e-38
662.72198 -2005.74 -237.89999 1.8403113e-38
652.44098 -1902.61 -230.924 1.8403113e-38
642.021 -1892.1899 -233.496 1.8403113e-38
627.41699 -1888.0699 -238.174 1.8403113e-38
-158.916 774.84998 -239.95799 1.8403113e-38
-134.147 770.66302 -231.73599 1.8403113e-38
677.35101 -1931.6 -225.194 1.8403113e-38
-125.011 770.03998 -228.61 1.8403113e-38
-116.053 785.88501 -223.858 1.8403113e-38
-117.568 799.35199 -223.007 1.8403113e-38
1218.03 -3638.47 -211.248 1.8403113e-38
692.98602 -1914.47 -217.979 1.8403113e-38
704.375 -1897.55 -212.26801 1.8403113e-38
1245.4301 -3634.26 -201.24699 1.8403113e-38
719.18799 -1904.05 -207.75999 1.8403113e-38
730.133 -1895.79 -203.092 1.8403113e-38
1273.38 -3637.8999 -191.85899 1.8403113e-38
744.96399 -1885.17 -196.82401 1.8403113e-38
755.53101 -1874.65 -192.05499 1.8403113e-38
-166.924 1256.6899 -193.386 1.8403113e-38
1299.92 -3628.3201 -181.60899 1.8403113e-38
780.92401 -1876.91 -183.418 1.8403113e-38
770.14099 -1868.79 -186.35201 1.8403113e-38
-156.68401 1258.11 -189.664 1.8403113e-38
-131.742 1255.51 -181.21899 1.8403113e-38
1326.66 -3624.49 -171.87601 1.8403113e-38
795.91199 -1882.8 -178.787 1.8403113e-38
806.46301 -1880.7 -174.88699 1.8403113e-38
-123.454 1260.13 -177.851 1.8403113e-38
1355.22 -3626.28 -162.084 1.8403113e-38
846.87299 -1882.53 -160.961 1.8403113e-38
820.88397 -1873.4399 -169.10699 1.8403113e-38
831.79498 -1879.05 -165.87 1.8403113e-38
-101.455 1262.37 -169.938 1.8403113e-38
-90.390701 1261.41 -166.172 1.8403113e-38
1423.2 -3830.73 -159.28999 1.8403113e-38
858.02002 -1888.85 -157.716 1.8403113e-38
872.81 -1887.15 -152.37601 1.8403113e-38
-67.143898 1260.5699 -158.13901 1.8403113e-38
-58.833099 1264.66 -154.819 1.8403113e-38
1398.3101 -3563.47 -140.599 1.8403113e-38
946.20099 -2069.3701 -145.414 1.8403113e-38
926.16803 -2036.9 -149.084 1.8403113e-38
908.30103 -1981.61 -149.659 1.8403113e-38
883.99298 -1892.21 -148.989 1.8403113e-38
-37.006401 1266.1 -147.047 1.8403113e-38
-28.663099 1269.9301 -143.741 1.8403113e-38
1429.88 -3584.02 -131.68201 1.8403113e-38
-3.5510099 1263.76 -135.603 1.8403113e-38
4.35636 1268.22 -132.384 1.8403113e-38
1459.42 -3589.8 -121.955 1.8403113e-38
26.4009 1267.99 -124.709 1.8403113e-38
33.949001 1273.12 -121.547 1.8403113e-38
1485.3 -3582.3701 -112.157 1.8403113e-38
56.301102 1271.6 -113.896 1.8403113e-38
63.8974 1276.5 -110.741 1.8403113e-38
1514.08 -3583.77 -102.249 1.8403113e-38
85.391899 1276.46 -103.238 1.8403113e-38
93.411903 1280.2 -100.054 1.8403113e-38
1542.5 -3586.45 -92.595901 1.8403113e-38
115.186 1278.87 -92.585999 1.8403113e-38
1569.4301 -3579.6101 -82.489899 1.8403113e-38
125.69 1275.8199 -89.230003 1.8403113e-38
143.52299 1284.4301 -82.119102 1.8403113e-38
1597.6801 -3580.72 -72.736198 1.8403113e-38
152.287 1285.8199 -78.916397 1.8403113e-38
174.17999 1282.83 -71.576599 1.8403113e-38
1624.5601 -3573.4299 -62.604599 1.8403113e-38
181.30499 1288.6899 -68.487297 1.8403113e-38
203.39 1284.4 -61.214199 1.8403113e-38
1652.86 -3573.9299 -52.771999 1.8403113e-38
210.884 1289.09 -58.115898 1.8403113e-38
229.255 1295.89 -51.0028 1.8403113e-38
1682.1899 -3574.8401 -42.620602 1.8403113e-38
240.05299 1289.86 -47.8503 1.8403113e-38
258.17401 1297.3199 -40.756401 1.8403113e-38
