# .PCD v0.7 - Point Cloud Data file format
VERSION 0.7
FIELDS x y z rgb
SIZE 4 4 4 4
TYPE F F F F
COUNT 1 1 1 1
WIDTH 343
HEIGHT 1
VIEWPOINT 0 0 0 1 0 0 0
POINTS 343
DATA ascii
-1057.8 540.617 -430.246 1.8403113e-38
-1050.55 559.44202 -431.496 1.8403113e-38
-1042.84 566.30603 -430.367 1.8403113e-38
-1033.55 583.93201 -430.754 1.8403113e-38
-1027.28 591.58099 -430.22101 1.8403113e-38
-1022.14 612.26202 -432.47601 1.8403113e-38
-1016.33 620.47198 -432.19199 1.8403113e-38
-1014.32 631.29602 -433.58401 1.8403113e-38
-1002.35 634.90503 -430.51801 1.8403113e-38
-1005.39 649.698 -434.22699 1.8403113e-38
-997.02899 656.052 -432.802 1.8403113e-38
-991.71002 664.47101 -432.711 1.8403113e-38
-983.98499 671.27698 -431.56699 1.8403113e-38
-982.15302 682.60199 -433.108 1.8403113e-38
-973.57397 688.70697 -431.56699 1.8403113e-38
-972.966 701.24799 -433.71701 1.8403113e-38
-965.66699 708.49799 -432.789 1.8403113e-38
-959.21802 716.02698 -432.17999 1.8403113e-38
-951.79999 723.16101 -431.19299 1.8403113e-38
-945.93402 731.20203 -430.86099 1.8403113e-38
-1054.97 504.806 -422.67899 1.8403113e-38
-1051.71 514.15399 -423.40601 1.8403113e-38
-1053.22 526.36798 -426.15701 1.8403113e-38
-1050.22 547.56799 -429.17599 1.8403113e-38
-1033.55 571.98401 -428.526 1.8403113e-38
-1021.65 599.81299 -429.99899 1.8403113e-38
-507.19199 1437.4 -425.55899 1.8403113e-38
-500.60999 1469.0699 -429.414 1.8403113e-38
-491.67099 1486.62 -429.89499 1.8403113e-38
-480.242 1500.3101 -428.87799 1.8403113e-38
-471.22101 1519.65 -429.66901 1.8403113e-38
-458.38501 1528.45 -427.302 1.8403113e-38
-447.591 1541 -426.26999 1.8403113e-38
-1054.16 439.34201 -410.20999 1.8403113e-38
-1058.1801 452.03601 -413.83499 1.8403113e-38
-1058.78 462.99799 -416.06799 1.8403113e-38
-1056.72 472.77499 -417.25 1.8403113e-38
-1052.97 481.58301 -417.72 1.8403113e-38
-1050.74 491.34601 -418.84601 1.8403113e-38
-1053.16 387.62 -400.245 1.8403113e-38
-1048.48 395.45499 -400.245 1.8403113e-38
-1053.02 407.798 -403.965 1.8403113e-38
-1055.405 424.31601 -407.79352 1.8403113e-38
-1056.65 339.64499 -392.38101 1.8403113e-38
-1052.24 347.76199 -392.517 1.8403113e-38
-1053.12 357.716 -394.64999 1.8403113e-38
-1057.23 369.43399 -398.12299 1.8403113e-38
-1052.71 377.297 -398.17599 1.8403113e-38
-862.63501 666.09399 -392.67999 1.8403113e-38
-487.61499 1311.01 -395.85501 1.8403113e-38
-1048.78 289.63699 -380.58801 1.8403113e-38
-1052.05 299.862 -383.51801 1.8403113e-38
-1048.84 308.302 -384.09 1.8403113e-38
-1044.83 316.06201 -384.28699 1.8403113e-38
-1043.25 325.095 -385.479 1.8403113e-38
-1047.62 243.495 -371.616 1.8403113e-38
-1046.6801 252.455 -372.995 1.8403113e-38
-1049.46 262.10699 -375.66501 1.8403113e-38
-1047.46 270.82401 -376.66501 1.8403113e-38
-1051.84 281.19101 -379.96701 1.8403113e-38
-1047.11 194.9225 -362.3905 1.8403113e-38
-1043.79 207.064 -363.62 1.8403113e-38
-1049.5699 217.58501 -367.39001 1.8403113e-38
-1046.34 225.313 -367.82101 1.8403113e-38
-1043.74 233.73399 -368.57999 1.8403113e-38
-811.28699 628.68402 -369.65302 1.8403113e-38
-795.96698 625.83301 -364.33401 1.8403113e-38
-787.68298 629.08398 -362.35199 1.8403113e-38
-785.04401 638.68701 -363.32001 1.8403113e-38
-774.76001 639.73798 -360.302 1.8403113e-38
-770.67102 647.92798 -360.55301 1.8403113e-38
-1044.1801 138.524 -350.948 1.8403113e-38
-1043.22 147.14 -352.259 1.8403113e-38
-1040.59 154.77901 -352.86099 1.8403113e-38
-1040.4301 163.55299 -354.44901 1.8403113e-38
-1044.14 172.52499 -357.28201 1.8403113e-38
-1036.4301 179.746 -356.22101 1.8403113e-38
-760.414 648.75598 -357.50201 1.8403113e-38
-753.03497 653.37 -356.05801 1.8403113e-38
-751.00299 663.12097 -357.24301 1.8403113e-38
-744.14203 668.35699 -356.07599 1.8403113e-38
-734.75696 676.35248 -354.6355 1.8403113e-38
-726.513 685.67902 -353.79999 1.8403113e-38
-718.28101 689.23401 -351.89099 1.8403113e-38
-711.05603 692.93597 -350.32401 1.8403113e-38
-466.991 1104.72 -350.91 1.8403113e-38
-1046.7849 84.824097 -341.74152 1.8403113e-38
-1049.9301 97.827499 -345.14999 1.8403113e-38
-1045.83 105.255 -345.25601 1.8403113e-38
-1042.34 113.47 -345.69901 1.8403113e-38
-1039.99 121.086 -346.38699 1.8403113e-38
-1044.8 130.56 -349.65799 1.8403113e-38
-698.71698 691.10797 -346.12799 1.8403113e-38
-696.13397 700.617 -347.095 1.8403113e-38
-686.13599 701.58801 -344.15201 1.8403113e-38
-678.33899 704.177 -342.19901 1.8403113e-38
-675.05798 714.15503 -343.03601 1.8403113e-38
-672.70697 724.34399 -344.202 1.8403113e-38
-473.047 1054.33 -343.39801 1.8403113e-38
-464.64401 1062.8 -342.353 1.8403113e-38
-451.39899 1088.95 -343.09399 1.8403113e-38
-447.159 1109.48 -345.60101 1.8403113e-38
-1052.64 15.6178 -330.65601 1.8403113e-38
-1053.02 23.363001 -332.22 1.8403113e-38
-1051.26 35.797501 -333.99048 1.8403113e-38
-1050.3101 48.255402 -336.01999 1.8403113e-38
-1039.04 55.1763 -333.78699 1.8403113e-38
-1038.79 63.708599 -335.30399 1.8403113e-38
-1043.49 71.908096 -338.30099 1.8403113e-38
-658.31598 718.77502 -338.66699 1.8403113e-38
-655.31598 728.09399 -339.46799 1.8403113e-38
-645.05798 735.15198 -337.58002 1.8403113e-38
-634.72498 742.09698 -335.647 1.8403113e-38
-628.862 747.29199 -334.785 1.8403113e-38
-624.35101 756.32202 -335.061 1.8403113e-38
-617.88 760.61603 -333.84 1.8403113e-38
-604.21802 769.68201 -331.263 1.8403113e-38
-519.36603 905.55798 -330.10699 1.8403113e-38
-515.48499 921.33801 -331.83899 1.8403113e-38
-510.22299 930.92798 -331.98401 1.8403113e-38
-504.90601 944.03101 -332.76801 1.8403113e-38
-498.38101 950.86102 -332.004 1.8403113e-38
-496.88901 975.74799 -336.18201 1.8403113e-38
-491.92401 988.01001 -336.91901 1.8403113e-38
-486.091 1002.03 -337.71399 1.8403113e-38
-481.655 1017.02 -339.125 1.8403113e-38
-473.948 1026.4301 -338.47299 1.8403113e-38
-1046.22 -16.959801 -322.57101 1.8403113e-38
-1051.96 -0.71185601 -327.39499 1.8403113e-38
-1048.8 -9.3449402 -324.79599 1.8403113e-38
-1049.62 6.9185901 -328.08899 1.8403113e-38
-606.37097 758.14398 -329.78201 1.8403113e-38
-593.22601 767.84497 -327.48499 1.8403113e-38
-590.41699 778.51001 -328.59698 1.8403113e-38
-580.83099 779 -325.694 1.8403113e-38
-571.98499 778.67401 -322.86899 1.8403113e-38
-563.34998 780.65698 -320.54001 1.8403113e-38
-525.53101 874.90198 -326.311 1.8403113e-38
-522.12299 890.62097 -328.17999 1.8403113e-38
-1045.6 -73.868103 -311.755 1.8403113e-38
-1040.72 -65.004097 -311.883 1.8403113e-38
-1042.75 -57.619801 -313.897 1.8403113e-38
-1038.2 -45.16325 -314.7995 1.8403113e-38
-1043.0699 -33.027901 -318.586 1.8403113e-38
-1041.01 -25.4573 -319.35599 1.8403113e-38
-557.63202 786.078 -319.76501 1.8403113e-38
-544.60449 787.5625 -315.9715 1.8403113e-38
-531.20203 788.00702 -311.866 1.8403113e-38
-525.81201 794.026 -311.306 1.8403113e-38
-520.737 803.39502 -311.46799 1.8403113e-38
-519.09003 818.099 -313.698 1.8403113e-38
-519.05701 839.78601 -317.73499 1.8403113e-38
-1050.59 -122.871 -304.16901 1.8403113e-38
-1044.22 -113.463 -303.93301 1.8403113e-38
-1044.75 -106.027 -305.487 1.8403113e-38
-1034.41 -96.444504 -304.04401 1.8403113e-38
-1020.49 -79.4888 -302.85999 1.8403113e-38
-1044.47 -187.13 -290.26501 1.8403113e-38
-1046.8201 -174.97701 -293.26749 1.8403113e-38
-1039.53 -161.217 -293.55701 1.8403113e-38
-1048.08 -155.08701 -297.37201 1.8403113e-38
-1046.76 -146.144 -298.629 1.8403113e-38
-1003.27 -86.411797 -296.185 1.8403113e-38
-334.44901 1003.47 -290.59601 1.8403113e-38
-1045.48 -236.88699 -281.29199 1.8403113e-38
-1047.985 -224.668 -284.35602 1.8403113e-38
-1050.35 -212.41701 -287.383 1.8403113e-38
-1051.71 -205.07201 -289.17899 1.8403113e-38
-1045.15 -194.819 -289.043 1.8403113e-38
-971.72998 -120.219 -280.022 1.8403113e-38
-321.34601 976.35999 -281.44299 1.8403113e-38
-1049.23 -296.41199 -271.35599 1.8403113e-38
-1050.36 -288.914 -273.108 1.8403113e-38
-1046.0701 -274.49402 -274.4585 1.8403113e-38
-1048.14 -262.047 -277.42801 1.8403113e-38
-1040.55 -252.295 -276.87601 1.8403113e-38
-1044.79 -244.368 -279.681 1.8403113e-38
-310.302 967.302 -276.30099 1.8403113e-38
-302.09299 965.828 -273.461 1.8403113e-38
-1045.33 -347.21799 -260.65601 1.8403113e-38
-1045.0601 -339.11401 -262.08401 1.8403113e-38
-1043.3501 -325.04602 -264.17499 1.8403113e-38
-1045.16 -312.30701 -267.117 1.8403113e-38
-1046.42 -304.853 -268.90302 1.8403113e-38
-937.98401 -123.57 -268.85101 1.8403113e-38
-291.18701 955.58801 -268.142 1.8403113e-38
-284.22601 961.64801 -267.09799 1.8403113e-38
-276.07901 970.55298 -266.21399 1.8403113e-38
-269.285 979.40302 -265.74301 1.8403113e-38
-260.20599 982.38397 -263.46201 1.8403113e-38
-252.498 984.31403 -261.414 1.8403113e-38
-244.09399 994.93597 -260.76999 1.8403113e-38
-1043.17 -400.01599 -250.12801 1.8403113e-38
-1045.1801 -392.61801 -252.13699 1.8403113e-38
-1040.61 -380.88 -252.897 1.8403113e-38
-1043.36 -373.85999 -255.06799 1.8403113e-38
-1040.39 -362.98599 -256.17099 1.8403113e-38
-1048.47 -358.03299 -259.61899 1.8403113e-38
-1047.72 -457.95599 -240.737 1.8403113e-38
-1040.51 -445.84698 -240.743 1.8403113e-38
-1046.29 -438.35999 -243.94701 1.8403113e-38
-1040.62 -427.24899 -244.24899 1.8403113e-38
-1045.5601 -415.21399 -248.03751 1.8403113e-38
-1052.65 -510.159 -232.534 1.8403113e-38
-1049.65 -517.56403 -230.214 1.8403113e-38
-1052.24 -490.155 -236.13901 1.8403113e-38
-1049.41 -497.56699 -233.87 1.8403113e-38
-1046.15 -476.345 -236.812 1.8403113e-38
-1041.79 -465.41501 -237.491 1.8403113e-38
5.6826501 1300.59 -239.76401 1.8403113e-38
17.810699 1301.26 -236.099 1.8403113e-38
29.005899 1307.7 -233.802 1.8403113e-38
41.4958 1310.12 -230.351 1.8403113e-38
-1050.6 -570.34003 -220.661 1.8403113e-38
-1046.38 -556.36902 -221.95 1.8403113e-38
-1043.78 -545.49298 -223.168 1.8403113e-38
-1049.49 -537.67798 -226.409 1.8403113e-38
-1044.97 -525.89398 -227.19501 1.8403113e-38
-222.37399 835.94397 -224.31 1.8403113e-38
52.5723 1314.37 -227.68401 1.8403113e-38
64.545502 1312.66 -223.623 1.8403113e-38
-1049.59 -622.44 -210.62199 1.8403113e-38
-1053.48 -615.08197 -213.21201 1.8403113e-38
-1050.65 -601.32501 -214.89301 1.8403113e-38
-1048.54 -590.22498 -216.306 1.8403113e-38
-1046.25 -577.16998 -218.02699 1.8403113e-38
-211.507 800.39899 -214.28101 1.8403113e-38
74.559097 1309.86 -219.97099 1.8403113e-38
87.348701 1312.83 -216.53 1.8403113e-38
98.044701 1313.73 -213.355 1.8403113e-38
111.316 1318.4301 -210.08501 1.8403113e-38
-1046.13 -664.95801 -201.606 1.8403113e-38
-1052 -658.79901 -204.589 1.8403113e-38
-1046.46 -642.52002 -205.89799 1.8403113e-38
-1050.53 -635.19897 -208.535 1.8403113e-38
-196.067 776.77502 -205.047 1.8403113e-38
-186.09851 772.77148 -201.185 1.8403113e-38
-204.42 788.13702 -209.778 1.8403113e-38
121.684 1317.16 -206.60899 1.8403113e-38
135.293 1322.61 -203.37199 1.8403113e-38
-1047.77 -726.40698 -190.649 1.8403113e-38
-1047.11 -712.66101 -193.009 1.8403113e-38
-1051.77 -705.36603 -195.827 1.8403113e-38
-1049.26 -690.50598 -197.817 1.8403113e-38
-1049.75 -680.23999 -199.88499 1.8403113e-38
-176.20599 766.67102 -196.955 1.8403113e-38
-155.50301 769.745 -191.06 1.8403113e-38
-165.9865 773.17297 -194.97549 1.8403113e-38
-38.258801 992.203 -195.94099 1.8403113e-38
145.256 1319.1899 -199.62 1.8403113e-38
159 1324.39 -196.297 1.8403113e-38
169.62399 1323.67 -192.842 1.8403113e-38
-1049.02 -777.54199 -181.49699 1.8403113e-38
-1048.97 -763.56702 -184.09 1.8403113e-38
-1048.6899 -751.875 -186.18401 1.8403113e-38
-1048.33 -738.01202 -188.661 1.8403113e-38
-145.927 768.11652 -187.76349 1.8403113e-38
-136.30901 773.25201 -185.716 1.8403113e-38
-125.8375 775.29999 -182.82651 1.8403113e-38
183.52299 1328.63 -189.425 1.8403113e-38
192.955 1322.86 -185.40199 1.8403113e-38
206.709 1326.63 -181.806 1.8403113e-38
-1044.1899 -826.07501 -170.92999 1.8403113e-38
-1044 -811.27197 -173.633 1.8403113e-38
-1049.5 -804.047 -176.7 1.8403113e-38
-1043.74 -784.77502 -178.49899 1.8403113e-38
-115.491 773.29102 -179.218 1.8403113e-38
-105.6995 777.02795 -176.85651 1.8403113e-38
-96.045502 777.69098 -173.964 1.8403113e-38
-87.587799 789.87799 -173.595 1.8403113e-38
-81.355103 793.12201 -172.25301 1.8403113e-38
-72.739304 803.20801 -171.44299 1.8403113e-38
-65.757896 812.22198 -170.944 1.8403113e-38
217.88499 1327.39 -178.45599 1.8403113e-38
233.13 1335.6899 -175.242 1.8403113e-38
244.13901 1335.25 -171.71899 1.8403113e-38
-1042.12 -879.83002 -160.252 1.8403113e-38
-1043.33 -865.505 -163.302 1.8403113e-38
-1042.75 -852.18903 -165.60699 1.8403113e-38
-1044.35 -838.63202 -168.638 1.8403113e-38
258.48199 1339.46 -168.022 1.8403113e-38
271.603 1345.4399 -165.039 1.8403113e-38
284.936 1345.5699 -160.897 1.8403113e-38
-1046.3199 -926.82001 -152.793 1.8403113e-38
-1045.75 -912.58002 -155.27499 1.8403113e-38
-1041.66 -892.53802 -157.735 1.8403113e-38
295.13501 1341.8101 -157.008 1.8403113e-38
308.48801 1341.7 -152.81599 1.8403113e-38
-1046.21 -989.11499 -141.134 1.8403113e-38
-1040.28 -968.11401 -143.19901 1.8403113e-38
-1043.91 -954.96503 -146.78799 1.8403113e-38
-1043.7 -940.64001 -149.396 1.8403113e-38
321.88599 1347.16 -149.647 1.8403113e-38
336.33499 1349.62 -145.591 1.8403113e-38
347.535 1348.21 -141.82899 1.8403113e-38
-1037.99 -1030.86 -130.77299 1.8403113e-38
-1040.99 -1016.11 -134.465 1.8403113e-38
-1043.55 -1003.83 -137.556 1.8403113e-38
362.43799 1351.34 -137.756 1.8403113e-38
375.814 1355.28 -134.313 1.8403113e-38
390.88599 1358.12 -130.131 1.8403113e-38
-1040.72 -1084.83 -121.556 1.8403113e-38
-1038.22 -1065.5601 -124.37 1.8403113e-38
-1042.9301 -1052.24 -128.32899 1.8403113e-38
404.79999 1362.6899 -126.637 1.8403113e-38
420.043 1365.22 -122.345 1.8403113e-38
-1039.67 -1140.38 -110.859 1.8403113e-38
-1038.29 -1118.36 -114.539 1.8403113e-38
-1036.91 -1099.74 -117.583 1.8403113e-38
434.14001 1369.47 -118.735 1.8403113e-38
451.13 1375.36 -114.524 1.8403113e-38
461.806 1371.0601 -110.386 1.8403113e-38
-1037.67 -1176.6 -103.474 1.8403113e-38
-1036.83 -1154.4301 -107.35 1.8403113e-38
478.155 1374.8 -105.975 1.8403113e-38
494.24799 1382.0601 -102.3 1.8403113e-38
923.383 2125.72 -106.994 1.8403113e-38
-1036.3101 -1234.45 -92.252098 1.8403113e-38
-1034.7 -1213.02 -95.750702 1.8403113e-38
-1034.41 -1190.71 -99.822502 1.8403113e-38
508.69601 1380.92 -97.573997 1.8403113e-38
522.854 1383.3101 -93.5961 1.8403113e-38
603.005 1515.58 -93.234802 1.8403113e-38
950.44098 2133.4399 -99.980103 1.8403113e-38
971.45502 2132.96 -93.323402 1.8403113e-38
-1032.39 -1271.98 -84.024101 1.8403113e-38
-1035.99 -1256.9301 -87.958702 1.8403113e-38
994.12903 2131.28 -85.925301 1.8403113e-38
-1026.33 -1308.01 -75.408501 1.8403113e-38
-1029.8101 -1292.11 -79.462097 1.8403113e-38
1015.71 2131.22 -79.169098 1.8403113e-38
1042.83 2136.9399 -71.761902 1.8403113e-38
-921.31299 -1194.35 -63.802799 1.8403113e-38
-926.245 -1182.5699 -67.542 1.8403113e-38
1064.58 2136.3601 -64.857597 1.8403113e-38
-919.51001 -1234.85 -55.680698 1.8403113e-38
-916.23401 -1209.59 -59.372002 1.8403113e-38
-867.59302 -1175.34 -50.564201 1.8403113e-38
1087.5 2133.71 -57.201801 1.8403113e-38
1108.83 2131.78 -50.175301 1.8403113e-38
-854.70599 -1173.9 -46.805698 1.8403113e-38
-840.263 -1173.27 -42.4105 1.8403113e-38
1130.78 2126.9299 -42.4105 1.8403113e-38
