# .PCD v0.7 - Point Cloud Data file format
VERSION 0.7
FIELDS x y z rgb
SIZE 4 4 4 4
TYPE F F F F
COUNT 1 1 1 1
WIDTH 342
HEIGHT 1
VIEWPOINT 0 0 0 1 0 0 0
POINTS 342
DATA ascii
-1048.63 567.25897 -430.70901 1.8403113e-38
-1041.71 586.47498 -432.121 1.8403113e-38
-1012.61 626.76599 -430.51999 1.8403113e-38
-1005.28 646.20502 -431.84799 1.8403113e-38
-999.26001 654.16699 -431.44601 1.8403113e-38
-1000.51 667.96503 -434.40601 1.8403113e-38
-985.367 675.03796 -430.98602 1.8403113e-38
-980.26801 690.37598 -432.24701 1.8403113e-38
-980.29102 703.67499 -434.729 1.8403113e-38
-972.38 710.19299 -433.46799 1.8403113e-38
-965.13 717.258 -432.51599 1.8403113e-38
-957.82898 724.25403 -431.535 1.8403113e-38
-954.61499 735.03497 -432.53601 1.8403113e-38
-1046.83 520.09698 -421.36899 1.8403113e-38
-1043.74 535.20447 -423.2135 1.8403113e-38
-1046.79 554.37097 -427.73499 1.8403113e-38
-1038.54 572.47198 -428.526 1.8403113e-38
-1026.87 588.35303 -427.832 1.8403113e-38
-1020.56 595.94501 -427.26999 1.8403113e-38
-1021.07 608.39502 -429.74899 1.8403113e-38
-1016.12 617.03699 -429.80899 1.8403113e-38
-1005.24 633.65002 -429.49899 1.8403113e-38
-943.763 738.68799 -429.82199 1.8403113e-38
-507.10699 1468.03 -429.017 1.8403113e-38
-496.76001 1482.26 -428.431 1.8403113e-38
-487.46399 1502.12 -429.22 1.8403113e-38
-475.04999 1508.65 -426.552 1.8403113e-38
-465.84299 1531.26 -427.88101 1.8403113e-38
-455.54599 1550.02 -428.15302 1.8403113e-38
-443.905 1562.99 -426.927 1.8403113e-38
-1044.98 464.37399 -410.41599 1.8403113e-38
-1048.73 477.117 -413.95999 1.8403113e-38
-1044.12 485.396 -414.05899 1.8403113e-38
-1048.42 498.758 -417.89099 1.8403113e-38
-1044.4301 507.517 -418.276 1.8403113e-38
-502.99399 1396.39 -414.39499 1.8403113e-38
-1051.78 405.483 -401.582 1.8403113e-38
-1045.23 412.547 -400.84799 1.8403113e-38
-1051.3101 425.707 -405.19901 1.8403113e-38
-1042.9301 431.88901 -403.728 1.8403113e-38
-1045.4 443.51401 -406.66599 1.8403113e-38
-1041.91 452.18399 -407.18799 1.8403113e-38
-1048.03 364.056 -392.698 1.8403113e-38
-1048.7 374.14099 -394.784 1.8403113e-38
-1044.11 381.99399 -394.80801 1.8403113e-38
-1047.16 393.29501 -397.86499 1.8403113e-38
-545.09497 1196.34 -390.323 1.8403113e-38
-537.539 1209.6 -390.42999 1.8403113e-38
-525.97302 1249.9301 -394.32001 1.8403113e-38
-517.73297 1263.14 -394.20099 1.8403113e-38
-511.10999 1282.83 -395.79501 1.8403113e-38
-502.689 1296.91 -395.78201 1.8403113e-38
-493.57999 1309.0699 -395.19601 1.8403113e-38
-1046.3199 306.23801 -381.39899 1.8403113e-38
-1040.8199 322.91101 -382.78101 1.8403113e-38
-1043.66 333.43301 -385.629 1.8403113e-38
-1040.27 341.603 -386.09 1.8403113e-38
-1035.9399 349.39001 -386.186 1.8403113e-38
-557.75897 1164.25 -388.311 1.8403113e-38
-550.01599 1175.73 -388.026 1.8403113e-38
-527.25897 1214.53 -388.13101 1.8403113e-38
-1035.8 266.19199 -370.655 1.8403113e-38
-1041.0601 276.88501 -374.28799 1.8403113e-38
-1045.29 287.40399 -377.57101 1.8403113e-38
-1044.0699 296.185 -378.82401 1.8403113e-38
-1036.09 311.828 -379.23999 1.8403113e-38
-559.14301 1073.75 -371.897 1.8403113e-38
-552.02802 1084.21 -371.62 1.8403113e-38
-551.84399 1114.61 -377.22101 1.8403113e-38
-1036.09 222.151 -362.547 1.8403113e-38
-1041.84 232.455 -366.26199 1.8403113e-38
-1036.2 244.077 -366.6615 1.8403113e-38
-1032.24 256.17599 -367.67499 1.8403113e-38
-806.87701 620.33899 -364.978 1.8403113e-38
-799.83197 625.18103 -363.67599 1.8403113e-38
-553.35797 1030.04 -361.952 1.8403113e-38
-1038.3101 154.339 -350.616 1.8403113e-38
-1035.51 162.2 -351.20499 1.8403113e-38
-1032.585 174.2215 -352.526 1.8403113e-38
-1037.8101 188.09801 -356.745 1.8403113e-38
-1035.66 196.15199 -357.57101 1.8403113e-38
-1025.1801 202.164 -355.41299 1.8403113e-38
-1032.0601 212.44501 -359.48001 1.8403113e-38
-771.151 619.80902 -353.70599 1.8403113e-38
-784.77197 621.93298 -358.36099 1.8403113e-38
-778.54602 639.26099 -359.64001 1.8403113e-38
-764.92798 636.94 -354.948 1.8403113e-38
-761.03101 644.81299 -355.19501 1.8403113e-38
-742.29602 648.534 -350.02802 1.8403113e-38
-757.68701 653.37097 -355.742 1.8403113e-38
-726.24597 680.08099 -350.88101 1.8403113e-38
-556.026 1009.81 -359.021 1.8403113e-38
-1036.8101 104.349 -340.841 1.8403113e-38
-1028.23 119.512 -340.98199 1.8403113e-38
-1033.21 128.494 -344.21201 1.8403113e-38
-1040.9 138.05701 -348.39801 1.8403113e-38
-1038.24 145.951 -349.035 1.8403113e-38
-736.388 654.13 -349.22198 1.8403113e-38
-732.90198 662.54199 -349.698 1.8403113e-38
-724.44 665.16901 -347.54001 1.8403113e-38
-712.31897 676.00201 -345.76501 1.8403113e-38
-704.29053 685.46252 -345.0155 1.8403113e-38
-693.81799 691.85797 -342.92999 1.8403113e-38
-687.56799 697.03601 -341.94 1.8403113e-38
-684.65997 706.73297 -342.83499 1.8403113e-38
-671.87701 716.883 -340.72699 1.8403113e-38
-547.93402 963.81097 -347.927 1.8403113e-38
-1047.7 31.998501 -330.77899 1.8403113e-38
-1038.37 47.6325 -330.772 1.8403113e-38
-1048.78 56.498501 -335.67899 1.8403113e-38
-1048.6899 64.6744 -337.17099 1.8403113e-38
-1035.17 75.638504 -334.9855 1.8403113e-38
-1033.83 87.667503 -336.80499 1.8403113e-38
-1038.1801 96.332497 -339.77899 1.8403113e-38
-1029.73 111.564 -339.97101 1.8403113e-38
-673.27502 704.92798 -338.93799 1.8403113e-38
-660.53497 714.87201 -336.80499 1.8403113e-38
-655.17999 721.32703 -336.332 1.8403113e-38
-646.05103 722.22803 -333.64401 1.8403113e-38
-646.36298 737.30798 -336.54901 1.8403113e-38
-637.69 738.88397 -334.129 1.8403113e-38
-628.526 739.55902 -331.38901 1.8403113e-38
-624.41302 748.21399 -331.71399 1.8403113e-38
-613.42902 761.40399 -330.73401 1.8403113e-38
-540.55701 921.63 -337.76801 1.8403113e-38
-1037.95 -0.48622 -321.68399 1.8403113e-38
-1045.98 7.6743398 -325.71301 1.8403113e-38
-1045.35 15.7225 -327.01501 1.8403113e-38
-1036.09 23.425699 -325.55301 1.8403113e-38
-1040.21 39.686001 -329.86899 1.8403113e-38
-614.25897 747.09802 -328.32999 1.8403113e-38
-606.151 765.06598 -329.13901 1.8403113e-38
-596.01398 763.69397 -325.71301 1.8403113e-38
-594.79303 778.01202 -327.996 1.8403113e-38
-586.48798 779.82599 -325.737 1.8403113e-38
-573.68402 773.138 -320.487 1.8403113e-38
-568.58099 780.65399 -320.29001 1.8403113e-38
-525.349 862.92603 -322.08301 1.8403113e-38
-1040.8101 -48.3563 -313.66699 1.8403113e-38
-1038.75 -40.318001 -314.51999 1.8403113e-38
-1037.58 -32.334 -315.64001 1.8403113e-38
-1031.5699 -24.2983 -315.255 1.8403113e-38
-1031.22 -16.393999 -316.617 1.8403113e-38
-1029.85 -8.4930096 -317.66 1.8403113e-38
-559.02502 779.64301 -317.11301 1.8403113e-38
-551.67102 782.79199 -315.39899 1.8403113e-38
-1035.75 -111.591 -300.31299 1.8403113e-38
-1040.91 -104.183 -303.30701 1.8403113e-38
-1031.6899 -95.322998 -302.07101 1.8403113e-38
-1035.12 -71.878601 -307.508 1.8403113e-38
-1028.3 -79.274696 -304.00101 1.8403113e-38
-1021.79 -63.173801 -304.95999 1.8403113e-38
-1028.47 -55.709202 -308.43799 1.8403113e-38
-537.98199 772.98999 -309.293 1.8403113e-38
-533.60699 781.979 -309.59799 1.8403113e-38
-526.67499 785.755 -308.133 1.8403113e-38
-510.379 787.87299 -303.42999 1.8403113e-38
-523.70099 798.18103 -309.51599 1.8403113e-38
-510.311 807.26398 -307.01901 1.8403113e-38
-342.961 1068.97 -303.39401 1.8403113e-38
-1042.54 -176.78101 -290.30099 1.8403113e-38
-1033.8149 -155.146 -291.60101 1.8403113e-38
-1037.62 -127.749 -297.892 1.8403113e-38
-1038.15 -119.835 -299.53 1.8403113e-38
-1009.96 -85.560699 -297.095 1.8403113e-38
-1035.88 -216.043 -280.91 1.8403113e-38
-1037.76 -204.2475 -283.694 1.8403113e-38
-1039.51 -192.422 -286.44199 1.8403113e-38
-1032.05 -182.86301 -285.89099 1.8403113e-38
-1033.98 -167.172 -289.414 1.8403113e-38
-1039.96 -275.004 -271.20999 1.8403113e-38
-1035.2 -265.26001 -271.53799 1.8403113e-38
-1046.95 -251.84 -277.70999 1.8403113e-38
-1036.9 -257.42899 -273.52499 1.8403113e-38
-1040.09 -241.711 -277.448 1.8403113e-38
-1033.12 -231.714 -277.13101 1.8403113e-38
-1034.53 -223.88699 -279.03 1.8403113e-38
-973.20099 -126.721 -277.93399 1.8403113e-38
-307.992 969.36102 -273.914 1.8403113e-38
-298.724 965.40503 -270.27899 1.8403113e-38
-317.508 974.17999 -277.78799 1.8403113e-38
-1036.16 -324.707 -260.76999 1.8403113e-38
-1038.36 -316.89401 -262.91199 1.8403113e-38
-1040.49 -309.05701 -265.03699 1.8403113e-38
-1035.22 -294.58701 -266.08252 1.8403113e-38
-1038.12 -282.854 -269.173 1.8403113e-38
-919.276 -126.103 -261.18301 1.8403113e-38
-284.59149 956.38348 -264.1795 1.8403113e-38
-272.164 958.78101 -260.73901 1.8403113e-38
-264.75201 968.04303 -260.14499 1.8403113e-38
-257.50699 980.16901 -260.13599 1.8403113e-38
-1036.91 -377.41501 -251.194 1.8403113e-38
-1038.65 -369.25299 -253.257 1.8403113e-38
-1036.115 -355.0405 -255.10899 1.8403113e-38
-1031.5601 -340.263 -256.436 1.8403113e-38
-1033.89 -332.49701 -258.61099 1.8403113e-38
-244.98849 984.14197 -256.96051 1.8403113e-38
-233.467 1001.63 -256.61301 1.8403113e-38
-1039.99 -433.26599 -241.76199 1.8403113e-38
-1036 -422.16299 -242.58099 1.8403113e-38
-1032.79 -411.56 -243.549 1.8403113e-38
-1035.73 -403.814 -245.909 1.8403113e-38
-1030.52 -392.53699 -246.381 1.8403113e-38
-1033.3 -384.80399 -248.689 1.8403113e-38
-1037.245 -483.90399 -231.47549 1.8403113e-38
-1033.83 -467.75201 -233.414 1.8403113e-38
-1030.24 -456.47299 -234.39 1.8403113e-38
-1035.1851 -444.90198 -238.0905 1.8403113e-38
20.536699 1292.15 -231.24899 1.8403113e-38
-1040.25 -540.00403 -221.97099 1.8403113e-38
-1037.46 -528.27698 -223.284 1.8403113e-38
-1031.14 -514.672 -223.838 1.8403113e-38
-1034.95 -506.987 -226.461 1.8403113e-38
-1038.7 -499.26401 -229.07001 1.8403113e-38
32.899502 1300.97 -229.024 1.8403113e-38
44.530998 1303.79 -225.911 1.8403113e-38
55.902802 1304.55 -222.495 1.8403113e-38
-1043.48 -604.836 -210.914 1.8403113e-38
-1040.61 -592.21698 -212.366 1.8403113e-38
-1037.6 -579.68298 -213.758 1.8403113e-38
-1037.42 -563.9115 -216.636 1.8403113e-38
-1037 -548.23102 -219.424 1.8403113e-38
-212.57899 829.93799 -218.119 1.8403113e-38
66.9646 1303.25 -218.793 1.8403113e-38
78.009697 1301.85 -215.078 1.8403113e-38
89.936798 1305.22 -211.976 1.8403113e-38
-1043.03 -648.646 -202.618 1.8403113e-38
-1035.02 -631.81403 -203.248 1.8403113e-38
-1039.83 -624.14502 -206.17799 1.8403113e-38
-1038.02 -611.99298 -207.875 1.8403113e-38
-188.395 773.69098 -200.08501 1.8403113e-38
-195.811 786.66803 -204.82001 1.8403113e-38
-202.91 790.75897 -207.802 1.8403113e-38
101.175 1304.59 -208.343 1.8403113e-38
124.868 1308.84 -201.72501 1.8403113e-38
113.784 1310.66 -205.53101 1.8403113e-38
-1036.84 -701.823 -190.784 1.8403113e-38
-1042.24 -694.16901 -193.897 1.8403113e-38
-1033.33 -675.72803 -194.54401 1.8403113e-38
-1039.3101 -668.68298 -197.72301 1.8403113e-38
-1037.22 -655.74799 -199.478 1.8403113e-38
-181.46001 767.49298 -196.76199 1.8403113e-38
-174.74899 765.14899 -194.22701 1.8403113e-38
-168.049 760.77698 -191.317 1.8403113e-38
137.20599 1312.75 -198.593 1.8403113e-38
148.737 1312.65 -194.96899 1.8403113e-38
160.735 1314.39 -191.53999 1.8403113e-38
-1032.87 -747.18701 -181.09599 1.8403113e-38
-1038.65 -739.58899 -184.32001 1.8403113e-38
-1038.97 -727.57098 -186.655 1.8403113e-38
-1036.04 -713.125 -188.42799 1.8403113e-38
-161.507 763.21802 -189.72501 1.8403113e-38
-154.91901 760.68597 -187.194 1.8403113e-38
-145.0475 764.6355 -184.841 1.8403113e-38
-135.252 761.58197 -181.209 1.8403113e-38
172.537 1315.05 -187.97099 1.8403113e-38
185.58701 1320.41 -184.888 1.8403113e-38
198.741 1325.65 -181.748 1.8403113e-38
-1040.9399 -805.49902 -172.765 1.8403113e-38
-1039.75 -791.29303 -175.037 1.8403113e-38
-1032.37 -771.96002 -176.33 1.8403113e-38
-1039.12 -765.02002 -179.733 1.8403113e-38
-125.37151 763.30005 -178.43851 1.8403113e-38
-115.264 768.83899 -176.30901 1.8403113e-38
-105.3305 769.30701 -173.2885 1.8403113e-38
-95.387497 769.65601 -170.244 1.8403113e-38
-38.011101 911.07599 -178.62399 1.8403113e-38
210.16901 1324.03 -177.873 1.8403113e-38
222.39301 1325.1801 -174.26401 1.8403113e-38
236.591 1332.91 -171.26199 1.8403113e-38
-1032.4399 -851.96899 -161.45599 1.8403113e-38
-1039.11 -844.42102 -164.94901 1.8403113e-38
-1032.5699 -824.65802 -166.58099 1.8403113e-38
-1033.86 -812.41602 -169.263 1.8403113e-38
-85.094894 773.79199 -167.795 1.8403113e-38
-73.065399 794.52399 -167.892 1.8403113e-38
-65.101601 804.97302 -167.34599 1.8403113e-38
-58.102001 805.52399 -165.259 1.8403113e-38
249.226 1334.77 -167.65601 1.8403113e-38
262.495 1338.41 -164.183 1.8403113e-38
-1034.36 -911.40601 -150.995 1.8403113e-38
-1037.3199 -899.63202 -154.112 1.8403113e-38
-1032.35 -880.16699 -156.181 1.8403113e-38
-1039.27 -872.63202 -159.746 1.8403113e-38
272.534 1331.46 -159.75 1.8403113e-38
284.63901 1331.0601 -155.89 1.8403113e-38
298.65799 1336.22 -152.466 1.8403113e-38
-1032.15 -954.75897 -142.233 1.8403113e-38
-1032.84 -940.02399 -145.19099 1.8403113e-38
-1034.73 -926.77002 -148.24899 1.8403113e-38
309.86401 1332.75 -148.315 1.8403113e-38
324.69 1339.52 -144.938 1.8403113e-38
337.271 1339.5601 -141.011 1.8403113e-38
-1032.95 -1003.69 -133.37399 1.8403113e-38
-1034.23 -988.79999 -136.547 1.8403113e-38
-1030.6 -968.802 -139.13499 1.8403113e-38
352.31201 1346.03 -137.511 1.8403113e-38
363.21799 1341.15 -133.19099 1.8403113e-38
-1031.6899 -1070.52 -120.54 1.8403113e-38
-1029.27 -1050.11 -123.584 1.8403113e-38
-1033.08 -1037.37 -127.145 1.8403113e-38
-1029.52 -1016.37 -129.94099 1.8403113e-38
376.97601 1343.6 -129.345 1.8403113e-38
391.54401 1347.77 -125.564 1.8403113e-38
405.82999 1350.86 -121.67 1.8403113e-38
-1025.6899 -1099.1899 -113.326 1.8403113e-38
-1028.78 -1084.85 -116.962 1.8403113e-38
420.582 1354.71 -117.774 1.8403113e-38
436.21701 1360.25 -113.914 1.8403113e-38
-1029.87 -1161.34 -103.066 1.8403113e-38
-1028.15 -1139.74 -106.547 1.8403113e-38
-1026.13 -1118.25 -109.916 1.8403113e-38
451.974 1365.61 -109.984 1.8403113e-38
467.44101 1369.88 -105.942 1.8403113e-38
482.59601 1373.08 -101.797 1.8403113e-38
-1022.1 -1211.3101 -91.334198 1.8403113e-38
-1026.49 -1196.77 -95.413498 1.8403113e-38
-1025.3 -1175.04 -99.086899 1.8403113e-38
497.83801 1376.11 -97.594299 1.8403113e-38
509.70999 1371.76 -93.071602 1.8403113e-38
933.62299 2120.53 -99.868797 1.8403113e-38
958.995 2126.76 -93.093803 1.8403113e-38
-1023.66 -1255.9301 -83.514198 1.8403113e-38
-1023.33 -1233.98 -87.495796 1.8403113e-38
527.25598 1378.98 -88.926697 1.8403113e-38
559.69299 1415.5 -85.580498 1.8403113e-38
980.784 2125.6399 -86.070396 1.8403113e-38
-1021.15 -1319.72 -70.8554 1.8403113e-38
-1018.36 -1292.59 -75.0327 1.8403113e-38
-1023.12 -1277.13 -79.398598 1.8403113e-38
1003.57 2126.05 -79.019897 1.8403113e-38
1025.9399 2125.3301 -71.889099 1.8403113e-38
-953.08698 -1238.92 -64.608398 1.8403113e-38
1052.29 2131.3501 -64.767998 1.8403113e-38
-905.91602 -1231.12 -51.306198 1.8403113e-38
-914.27502 -1222.34 -55.555401 1.8403113e-38
-913.90503 -1200.02 -59.5947 1.8403113e-38
1095.9 2126.05 -50.142502 1.8403113e-38
1074.83 2130.1201 -57.490101 1.8403113e-38
-867.90503 -1191.1 -46.868301 1.8403113e-38
-847.47498 -1178.88 -42.752499 1.8403113e-38
1117.48 2122.6201 -42.752499 1.8403113e-38
