# .PCD v0.7 - Point Cloud Data file format
VERSION 0.7
FIELDS x y z rgb
SIZE 4 4 4 4
TYPE F F F F
COUNT 1 1 1 1
WIDTH 347
HEIGHT 1
VIEWPOINT 0 0 0 1 0 0 0
POINTS 347
DATA ascii
2575.1599 -465.966 -440.17001 1.8403113e-38
199.56599 -1307.37 -430.12799 1.8403113e-38
220.082 -1305.16 -431.94299 1.8403113e-38
237.62399 -1295.6899 -430.90399 1.8403113e-38
248.651 -1295.99 -432.388 1.8403113e-38
257.34698 -1291.0601 -431.79401 1.8403113e-38
267.20499 -1288.62 -432.194 1.8403113e-38
274.58899 -1281.01 -430.51999 1.8403113e-38
285.23099 -1280.1 -431.54001 1.8403113e-38
295.89999 -1279.08 -432.52802 1.8403113e-38
306.15799 -1277.12 -433.14401 1.8403113e-38
314.20999 -1270.92 -432.03201 1.8403113e-38
325.79901 -1271.26 -433.603 1.8403113e-38
336.98199 -1270.67 -434.79999 1.8403113e-38
343.07199 -1260.96 -432.24701 1.8403113e-38
352.34698 -1256.9301 -432.03101 1.8403113e-38
364.004 -1256.87 -433.46799 1.8403113e-38
395.729 -1250.36 -435.21799 1.8403113e-38
409.05399 -1252.2 -437.517 1.8403113e-38
371.30701 -1249.4301 -431.84299 1.8403113e-38
380.01099 -1244.36 -431.19901 1.8403113e-38
415.72 -1243.66 -435.43399 1.8403113e-38
423.332 -1236.65 -433.99301 1.8403113e-38
432.47 -1231.9301 -433.522 1.8403113e-38
444.82001 -1231.76 -435.01199 1.8403113e-38
450.64401 -1222.24 -432.48801 1.8403113e-38
459.67999 -1217.27 -431.92401 1.8403113e-38
472.05499 -1216.78 -433.306 1.8403113e-38
481.63199 -1212.39 -433.00299 1.8403113e-38
494.646 -1212.39 -434.63501 1.8403113e-38
502.466 -1205.5601 -433.28101 1.8403113e-38
514.94501 -1204.58 -434.50699 1.8403113e-38
523.28302 -1198.3199 -433.414 1.8403113e-38
533.38098 -1194.1801 -433.26501 1.8403113e-38
546.52197 -1193.5601 -434.69699 1.8403113e-38
554.77002 -1187.04 -433.504 1.8403113e-38
567.33502 -1185.4399 -434.53101 1.8403113e-38
576.14697 -1179.47 -433.59201 1.8403113e-38
585.552 -1174.11 -432.94101 1.8403113e-38
599.43799 -1173.54 -434.483 1.8403113e-38
608.82202 -1167.97 -433.75601 1.8403113e-38
622.77802 -1167.1 -435.20599 1.8403113e-38
628.81299 -1157.9301 -432.828 1.8403113e-38
639.44397 -1153.4301 -432.62299 1.8403113e-38
652.77197 -1151.49 -433.629 1.8403113e-38
659.29999 -1142.78 -431.47299 1.8403113e-38
676.77698 -1144.51 -434.25101 1.8403113e-38
688.09698 -1140.17 -434.18701 1.8403113e-38
701.51801 -1137.64 -435.00201 1.8403113e-38
717.09399 -1136.85 -436.685 1.8403113e-38
724.87598 -1128.9399 -434.95599 1.8403113e-38
738.34998 -1125.95 -435.62399 1.8403113e-38
744.586 -1116.64 -433.22 1.8403113e-38
757.31702 -1112.78 -433.49701 1.8403113e-38
772.271 -1110.59 -434.62299 1.8403113e-38
781.31702 -1103.4301 -433.30701 1.8403113e-38
793.31 -1098.55 -433.142 1.8403113e-38
805.29602 -1093.53 -432.92801 1.8403113e-38
820.31598 -1090.6899 -433.83899 1.8403113e-38
834.60498 -1087.09 -434.39801 1.8403113e-38
842.73901 -1078.78 -432.57901 1.8403113e-38
854.69202 -1073.2 -432.16901 1.8403113e-38
870.54199 -1070.24 -433.14499 1.8403113e-38
891.15601 -1070.36 -435.76599 1.8403113e-38
907.10797 -1066.95 -436.60001 1.8403113e-38
914.30902 -1057.49 -434.267 1.8403113e-38
931.06702 -1054.27 -435.26599 1.8403113e-38
946.24402 -1049.79 -435.63699 1.8403113e-38
962.24902 -1045.63 -436.22 1.8403113e-38
968.45398 -1035.21 -433.435 1.8403113e-38
984.44 -1030.71 -433.90201 1.8403113e-38
998.78699 -1025.03 -433.75699 1.8403113e-38
1008.13 -1016.26 -431.93301 1.8403113e-38
1029.98 -1014.55 -434.08301 1.8403113e-38
1053.58 -1013.46 -436.66699 1.8403113e-38
1060.34 -1002.79 -433.86899 1.8403113e-38
1075.51 -996.62201 -433.66 1.8403113e-38
1091.53 -990.70001 -433.64401 1.8403113e-38
1112.71 -987.20801 -435.104 1.8403113e-38
1121.84 -977.35797 -432.88101 1.8403113e-38
1141.3199 -972.51801 -433.66699 1.8403113e-38
1163.4399 -968.65997 -435.11899 1.8403113e-38
1178.59 -961.20203 -434.46799 1.8403113e-38
1203.4 -957.97998 -436.47501 1.8403113e-38
1207.05 -944.90002 -432.46201 1.8403113e-38
1238.11 -943.84802 -435.99301 1.8403113e-38
1245.1801 -932.05298 -432.84799 1.8403113e-38
1274.55 -929.51801 -435.66199 1.8403113e-38
1289.61 -920.69702 -434.534 1.8403113e-38
1312.76 -914.89697 -435.45099 1.8403113e-38
1333.21 -907.711 -435.55701 1.8403113e-38
1353.66 -900.23401 -435.564 1.8403113e-38
1378.67 -894.13898 -436.61401 1.8403113e-38
1399.12 -886.04102 -436.40799 1.8403113e-38
1427.84 -880.52399 -438.11899 1.8403113e-38
1450.13 -872.39502 -438.134 1.8403113e-38
1473.33 -864.24701 -438.25601 1.8403113e-38
1493.73 -854.87299 -437.608 1.8403113e-38
1516.91 -846.07001 -437.50299 1.8403113e-38
1538.1899 -836.36798 -436.853 1.8403113e-38
1569.77 -829.34998 -438.41101 1.8403113e-38
1590.0699 -818.68103 -437.30801 1.8403113e-38
1617.88 -809.76898 -437.746 1.8403113e-38
1648.52 -801.18201 -438.64899 1.8403113e-38
1679.16 -792.12799 -439.39301 1.8403113e-38
1695.51 -779.12299 -436.99701 1.8403113e-38
1730.87 -770.37402 -438.43701 1.8403113e-38
1762.41 -760.21198 -438.91501 1.8403113e-38
1785.29 -747.69299 -437.50299 1.8403113e-38
1815.8 -736.435 -437.478 1.8403113e-38
1838.5699 -723.17401 -435.798 1.8403113e-38
1875.75 -712.33099 -436.74899 1.8403113e-38
1914.84 -701.25897 -437.862 1.8403113e-38
1945.1801 -688.06403 -437.15399 1.8403113e-38
1975.47 -674.40302 -436.27899 1.8403113e-38
2021.25 -662.69397 -438.013 1.8403113e-38
2061.1699 -649.39899 -438.47 1.8403113e-38
2091.27 -634.125 -437.021 1.8403113e-38
2132.04 -619.77899 -437.22501 1.8403113e-38
2176.6699 -605.26202 -437.85501 1.8403113e-38
2224.1699 -590.36499 -438.715 1.8403113e-38
2226.4399 -570.01202 -432.043 1.8403113e-38
2281.6201 -554.72601 -433.73199 1.8403113e-38
2356.4399 -540.26398 -438.16101 1.8403113e-38
2403.6201 -522.41498 -437.97198 1.8403113e-38
2453.6699 -504.017 -437.95401 1.8403113e-38
2516.4399 -485.60599 -439.526 1.8403113e-38
162.23199 -1320.4 -429.90399 1.8403113e-38
148.619 -1311.25 -425.073 1.8403113e-38
171.521 -1317.04 -429.91901 1.8403113e-38
178.793 -1308.3199 -427.85199 1.8403113e-38
188.995 -1307.46 -428.83401 1.8403113e-38
208.39101 -1302.83 -429.68301 1.8403113e-38
225.89999 -1293.55 -428.70499 1.8403113e-38
2253.8899 -428.30301 -387.05499 1.8403113e-38
-602.02502 -1400.99 -361.71201 1.8403113e-38
-590.91101 -1400.34 -362.883 1.8403113e-38
-581.12598 -1403.22 -365.09299 1.8403113e-38
2132.8999 -403.379 -363.38199 1.8403113e-38
-664.729 -1392.0601 -350.80701 1.8403113e-38
-653.90302 -1392.9 -352.44699 1.8403113e-38
-631.19897 -1391.58 -354.841 1.8403113e-38
-641.22998 -1389.17 -352.76199 1.8403113e-38
-619.37201 -1389.42 -355.58401 1.8403113e-38
-607.60901 -1387.14 -356.27899 1.8403113e-38
-774.50598 -1402.36 -340.573 1.8403113e-38
-761.15302 -1399.88 -341.39899 1.8403113e-38
-747.88098 -1397.27 -342.16901 1.8403113e-38
-735.12701 -1395.39 -343.12399 1.8403113e-38
-721.58502 -1391.63 -343.53799 1.8403113e-38
-698.92297 -1392.48 -346.66599 1.8403113e-38
-708.56403 -1388.62 -344.138 1.8403113e-38
-686.013 -1389.22 -347.17001 1.8403113e-38
-673.19202 -1385.84 -347.61801 1.8403113e-38
-798.12903 -1400.9399 -337.13 1.8403113e-38
-833.97803 -1398.37 -331.76099 1.8403113e-38
-820.86401 -1397.38 -333.065 1.8403113e-38
-806.84601 -1394.5601 -333.85699 1.8403113e-38
-782.80902 -1395.3 -337.12299 1.8403113e-38
1984.83 -379.74301 -336.75601 1.8403113e-38
-844.12402 -1394.22 -329.07101 1.8403113e-38
1956.33 -360.97699 -326.77399 1.8403113e-38
1925.66 -342.67999 -316.67899 1.8403113e-38
1924.5699 -325.005 -310.50201 1.8403113e-38
-811.79303 -1321.02 -308.10699 1.8403113e-38
-817.62299 -1311.23 -304.03201 1.8403113e-38
-201.464 -1080.27 -302.28601 1.8403113e-38
38.425201 -1013.26 -309.43701 1.8403113e-38
1910.41 -307.42899 -302.72101 1.8403113e-38
-821.73901 -1298.95 -299.319 1.8403113e-38
-823.00702 -1282.5699 -293.56299 1.8403113e-38
-228.882 -1070.23 -295.42001 1.8403113e-38
-245.7515 -1065.725 -291.7695 1.8403113e-38
-235.548 -1066.39 -293.27399 1.8403113e-38
-221.8 -1064.54 -294.36301 1.8403113e-38
-214.974 -1064.48 -295.19699 1.8403113e-38
-208.19901 -1067.2 -296.97501 1.8403113e-38
-194.49001 -1067.73 -298.87399 1.8403113e-38
-187.644 -1065.55 -298.98599 1.8403113e-38
-181.147 -1046.29 -293.21799 1.8403113e-38
-74.211945 -1017.395 -296.73999 1.8403113e-38
-64.819397 -1014.08 -296.785 1.8403113e-38
-55.946949 -1008.34 -295.9335 1.8403113e-38
16.2862 -967.15601 -290.90799 1.8403113e-38
1900.04 -290.048 -295.48401 1.8403113e-38
-822.94098 -1264.61 -287.43301 1.8403113e-38
-829.71899 -1257.24 -284.06601 1.8403113e-38
-835.29401 -1248.22 -280.284 1.8403113e-38
-476.49701 -1132.27 -285.604 1.8403113e-38
-253.474 -1034.67 -280.18799 1.8403113e-38
-86.758797 -1001.08 -289.591 1.8403113e-38
-51.555599 -982.28101 -287.578 1.8403113e-38
-49.561501 -962.479 -281.061 1.8403113e-38
-17.2206 -964.66998 -285.86099 1.8403113e-38
-25.6126 -957.26099 -282.27802 1.8403113e-38
-12.7883 -957.51703 -283.97198 1.8403113e-38
-6.8773699 -955.75403 -284.10999 1.8403113e-38
3.072124 -956.604 -285.646 1.8403113e-38
1891.51 -272.80801 -288.52301 1.8403113e-38
1882.8 -255.72 -281.59299 1.8403113e-38
-1074.64 -1316.9399 -273.78699 1.8403113e-38
-975.85699 -1284.38 -275.034 1.8403113e-38
-980.651 -1273.62 -270.75601 1.8403113e-38
-844.12402 -1243.97 -277.72699 1.8403113e-38
-862.82898 -1236.83 -272.944 1.8403113e-38
-852.34802 -1238.85 -274.94699 1.8403113e-38
-176.146 -985.41602 -273.043 1.8403113e-38
-170.24001 -979.33698 -271.70499 1.8403113e-38
-122.254 -970.50299 -274.69699 1.8403113e-38
-97.064697 -975.16699 -279.44601 1.8403113e-38
-129.399 -960.05103 -270.23001 1.8403113e-38
-116.371 -968.711 -274.82199 1.8403113e-38
-105.064 -962.18701 -274.009 1.8403113e-38
-111.723 -957.52698 -271.582 1.8403113e-38
-46.197102 -950.03302 -277.229 1.8403113e-38
-33.1535 -952.48901 -279.703 1.8403113e-38
-41.4827 -943.98499 -275.75299 1.8403113e-38
1877.92 -238.633 -275.142 1.8403113e-38
-1078.1801 -1304.05 -268.939 1.8403113e-38
-1080.88 -1290.4399 -263.94901 1.8403113e-38
-985.30499 -1262.84 -266.491 1.8403113e-38
-985.98798 -1247.5601 -261.18301 1.8403113e-38
-922.01801 -1233.59 -264.423 1.8403113e-38
-906.60999 -1230.01 -265.12799 1.8403113e-38
-897.88599 -1234.8101 -267.85999 1.8403113e-38
-880.263 -1227.77 -267.664 1.8403113e-38
-869.81403 -1229.98 -269.72699 1.8403113e-38
-256.46799 -995.617 -266.46701 1.8403113e-38
-164.873 -963.77802 -267.06 1.8403113e-38
-156.388 -956.40698 -265.60449 1.8403113e-38
-144.758 -954.28601 -266.336 1.8403113e-38
-135.908 -954.21899 -267.422 1.8403113e-38
1874.86 -221.541 -268.918 1.8403113e-38
1878.59 -204.12399 -263.43301 1.8403113e-38
3634.9199 439.55801 -263.47 1.8403113e-38
-1077.37 -1270.34 -257.521 1.8403113e-38
-1080.3199 -1257.54 -252.776 1.8403113e-38
-986.45203 -1232.33 -255.91901 1.8403113e-38
-263.698 -975.75647 -258.77448 1.8403113e-38
-271.17001 -962.43799 -253.287 1.8403113e-38
-276.31299 -956.33899 -250.55901 1.8403113e-38
1862.3101 -187.908 -255.85201 1.8403113e-38
1869.7 -170.258 -250.746 1.8403113e-38
3638.96 473.17801 -252.487 1.8403113e-38
-1083.11 -1244.76 -248.058 1.8403113e-38
-1079.53 -1225.62 -241.96899 1.8403113e-38
-419.12799 -985.685 -242.698 1.8403113e-38
-374.41599 -965.01703 -241.23599 1.8403113e-38
-361.46899 -962.823 -242.108 1.8403113e-38
-356.77701 -968.60797 -244.672 1.8403113e-38
-342.80701 -961.43298 -243.97 1.8403113e-38
-334.1355 -963.35303 -245.71249 1.8403113e-38
-348.19299 -958.539 -242.30701 1.8403113e-38
-322.78299 -952.06897 -243.27901 1.8403113e-38
-313.86499 -951.87 -244.3275 1.8403113e-38
-304.80801 -950.62903 -245.03799 1.8403113e-38
-293.43399 -952.867 -247.228 1.8403113e-38
-285.22998 -957.00702 -249.67 1.8403113e-38
-297.965 -944.71698 -243.875 1.8403113e-38
1857.08 -154.075 -243.636 1.8403113e-38
3647.5601 507.94901 -241.68201 1.8403113e-38
-1081.92 -1212.92 -237.328 1.8403113e-38
-1083.45 -1199.55 -232.56599 1.8403113e-38
-407.414 -969.93103 -238.78101 1.8403113e-38
-395.69 -963.01453 -237.88651 1.8403113e-38
-386.65399 -964.21698 -239.429 1.8403113e-38
-378.41199 -957.26703 -238.08701 1.8403113e-38
-365.56699 -955.15503 -238.974 1.8403113e-38
1865.15 -136.26199 -238.55901 1.8403113e-38
1873.05 -118.315 -233.41499 1.8403113e-38
-1084.8 -1186.21 -227.83701 1.8403113e-38
-1085.98 -1172.9 -223.14301 1.8403113e-38
1876.8199 -100.651 -227.851 1.8403113e-38
1884.38 -82.4729 -222.586 1.8403113e-38
2595.24 162.55701 -227.897 1.8403113e-38
-1088.41 -1160.99 -218.76801 1.8403113e-38
-1089.25 -1147.75 -214.13901 1.8403113e-38
1899.6899 -63.200802 -217.918 1.8403113e-38
1912.84 -43.9268 -212.978 1.8403113e-38
2576.98 182.942 -218.64301 1.8403113e-38
2602.6799 211.40199 -212.136 1.8403113e-38
3297.1001 462.66699 -213.256 1.8403113e-38
-1090.64 -1135.22 -209.68201 1.8403113e-38
-1089.66 -1120.73 -204.855 1.8403113e-38
-1089.96 -1107.63 -200.339 1.8403113e-38
1942.59 -22.1012 -209.246 1.8403113e-38
1938.5699 -4.7062998 -202.798 1.8403113e-38
1988.6 21.058201 -200.261 1.8403113e-38
-1084.85 -1090.02 -194.963 1.8403113e-38
-1090.0601 -1081.5601 -191.41901 1.8403113e-38
2020.64 44.757099 -196.175 1.8403113e-38
3174.27 464.31799 -197.30499 1.8403113e-38
-1084.53 -1064.14 -186.158 1.8403113e-38
-1091.02 -1056.97 -182.89301 1.8403113e-38
3155.53 489.02899 -186.513 1.8403113e-38
-1088.95 -1042.85 -178.33 1.8403113e-38
-1091.35 -1032.54 -174.50301 1.8403113e-38
-1091.28 -1020.39 -170.36099 1.8403113e-38
3152.0901 517.34399 -176.40601 1.8403113e-38
-1089.48 -1007.08 -166.036 1.8403113e-38
-1095.4399 -999.83899 -162.81599 1.8403113e-38
3145.48 544.89301 -166.164 1.8403113e-38
-1094.95 -987.80103 -158.76401 1.8403113e-38
-1094.3 -975.81403 -154.74899 1.8403113e-38
-1092.7 -963.30103 -150.674 1.8403113e-38
3160.8301 578.31097 -156.66701 1.8403113e-38
-1090.9399 -950.85602 -146.642 1.8403113e-38
-1091.47 -940.18402 -142.92799 1.8403113e-38
3147.8899 604.31299 -146.16 1.8403113e-38
-1092.845 -924.79102 -137.495 1.8403113e-38
-1094.8101 -910.00702 -132.19701 1.8403113e-38
3149.1399 634.258 -136.08299 1.8403113e-38
-1092.34 -897.828 -128.34399 1.8403113e-38
-1089.72 -885.72803 -124.537 1.8403113e-38
-1088.64 -874.76099 -120.925 1.8403113e-38
3154.8899 665.68201 -126.065 1.8403113e-38
-1092.54 -866.96899 -117.774 1.8403113e-38
-1090.37 -855.55603 -114.145 1.8403113e-38
-1094.08 -847.75702 -111.015 1.8403113e-38
3112.48 682.76898 -114.913 1.8403113e-38
3543.4399 846.78003 -112.849 1.8403113e-38
-1091.67 -836.43701 -107.449 1.8403113e-38
-1085.64 -823.22198 -103.688 1.8403113e-38
-1089.92 -815.95801 -100.67 1.8403113e-38
3551.0801 882.95697 -101.443 1.8403113e-38
-1087.12 -804.83301 -97.219299 1.8403113e-38
-1091.22 -797.552 -94.216301 1.8403113e-38
-1089.0699 -786.98798 -90.876099 1.8403113e-38
-1093.01 -779.685 -87.886101 1.8403113e-38
-1090.64 -769.20203 -84.600998 1.8403113e-38
-1087.25 -758.34497 -81.315399 1.8403113e-38
3993.3 1100.95 -82.342796 1.8403113e-38
-1092.74 -751.91699 -78.431801 1.8403113e-38
-1094.55 -743.71802 -75.402496 1.8403113e-38
-1091.75 -733.41699 -72.233597 1.8403113e-38
-1093.38 -725.25 -69.238197 1.8403113e-38
-1088.53 -714.24701 -66.085701 1.8403113e-38
-1091.8101 -706.92499 -63.173 1.8403113e-38
-1087.65 -696.45502 -60.115501 1.8403113e-38
3843.73 1087.28 -68.276299 1.8403113e-38
-1092.29 -685.461 -55.777149 1.8403113e-38
-1088.42 -671.10699 -51.3564 1.8403113e-38
3768.0901 1097.49 -55.311901 1.8403113e-38
-1093.17 -664.49103 -48.500702 1.8403113e-38
-1085.7 -653.245 -45.593899 1.8403113e-38
-1090.29 -646.61603 -42.752499 1.8403113e-38
3527.27 1045.97 -42.752499 1.8403113e-38
