# .PCD v0.7 - Point Cloud Data file format
VERSION 0.7
FIELDS x y z rgb
SIZE 4 4 4 4
TYPE F F F F
COUNT 1 1 1 1
WIDTH 292
HEIGHT 1
VIEWPOINT 0 0 0 1 0 0 0
POINTS 292
DATA ascii
1456.52 -774.95599 -440.746 1.8403113e-38
1498.5601 -755.34198 -440.991 1.8403113e-38
1540.4399 -734.47699 -440.80099 1.8403113e-38
1589.78 -713.96198 -441.909 1.8403113e-38
1638.96 -691.93799 -442.49799 1.8403113e-38
1688.92 -668.57599 -442.771 1.8403113e-38
1729.9399 -642.31598 -440.677 1.8403113e-38
1788.1 -617.24298 -441.69299 1.8403113e-38
1840.1801 -589.63599 -440.91199 1.8403113e-38
1899.74 -561.21997 -441.05399 1.8403113e-38
1966.8 -531.60303 -441.991 1.8403113e-38
2041.36 -500.39499 -443.599 1.8403113e-38
2106.6899 -466.32001 -442.802 1.8403113e-38
162.131 -1370.13 -430.33701 1.8403113e-38
163.493 -1368.6801 -430.078 1.8403113e-38
181.011 -1361.03 -430.354 1.8403113e-38
198.37 -1353.13 -430.51999 1.8403113e-38
200.35201 -1353.39 -430.92001 1.8403113e-38
217.24001 -1346.84 -431.453 1.8403113e-38
236.33051 -1338.5801 -431.77649 1.8403113e-38
253.52051 -1328.1951 -431.1015 1.8403113e-38
272.29001 -1319.3101 -431.17001 1.8403113e-38
289.00101 -1312.58 -431.61401 1.8403113e-38
291.48499 -1313.48 -432.30399 1.8403113e-38
309.164 -1306.4551 -432.80798 1.8403113e-38
328.02002 -1299.55 -433.539 1.8403113e-38
344.3295 -1287.78 -432.2695 1.8403113e-38
365.03699 -1283.9399 -434.29749 1.8403113e-38
383.39749 -1275.6499 -434.496 1.8403113e-38
405.35797 -1273.0449 -437.12653 1.8403113e-38
423.09851 -1263.265 -436.737 1.8403113e-38
439.04901 -1252.5601 -435.76199 1.8403113e-38
444.957 -1257.71 -438.38599 1.8403113e-38
455.38599 -1240.6801 -434.461 1.8403113e-38
456.54999 -1238.78 -434.02301 1.8403113e-38
477.07999 -1232.7 -435.29099 1.8403113e-38
472.056 -1229.3 -433.38 1.8403113e-38
494.7695 -1224.2 -435.31201 1.8403113e-38
513.50452 -1215.14 -435.31549 1.8403113e-38
531.84204 -1205.365 -435.02399 1.8403113e-38
549.39203 -1192.79 -433.69101 1.8403113e-38
550.12299 -1197 -435.185 1.8403113e-38
576.49103 -1192.63 -437.93799 1.8403113e-38
569.79797 -1188.33 -435.46799 1.8403113e-38
590.67999 -1180.6801 -436.272 1.8403113e-38
592.38898 -1179.26 -436.07999 1.8403113e-38
607.53003 -1166.7051 -434.36902 1.8403113e-38
631.90747 -1161.9551 -436.67999 1.8403113e-38
652.854 -1151.5601 -436.59799 1.8403113e-38
647.104 -1149.12 -434.88599 1.8403113e-38
672.18597 -1140.85 -436.15701 1.8403113e-38
667.73901 -1139.8199 -435.116 1.8403113e-38
694.211 -1132.3 -436.85199 1.8403113e-38
686.91901 -1128.8101 -434.55399 1.8403113e-38
708.83002 -1119.9301 -435.12 1.8403113e-38
711.23297 -1118.89 -435.16 1.8403113e-38
729.26801 -1109.33 -434.89001 1.8403113e-38
730.22998 -1107.01 -434.28101 1.8403113e-38
754.02802 -1101.91 -436.38699 1.8403113e-38
751.30103 -1096.54 -434.19699 1.8403113e-38
771.0885 -1086.225 -433.95599 1.8403113e-38
794.65747 -1076.875 -434.63348 1.8403113e-38
817.755 -1068.21 -435.45999 1.8403113e-38
822.49902 -1068.5601 -436.32599 1.8403113e-38
835.44098 -1053.66 -433.5 1.8403113e-38
843.336 -1056.1 -435.552 1.8403113e-38
859.24402 -1043.04 -433.798 1.8403113e-38
865.63599 -1044.25 -435.20999 1.8403113e-38
895.85602 -1037.09 -437.65799 1.8403113e-38
879.005 -1029.25 -432.414 1.8403113e-38
920.50201 -1025.6 -437.802 1.8403113e-38
903.46899 -1018.06 -432.633 1.8403113e-38
935.25549 -1009.155 -434.75848 1.8403113e-38
957.20898 -996.78302 -434.18799 1.8403113e-38
967.95599 -999.84003 -436.89499 1.8403113e-38
982.37598 -984.185 -434.05499 1.8403113e-38
994.05402 -987.49298 -436.991 1.8403113e-38
1013.4 -974.10797 -435.67599 1.8403113e-38
1024.33 -976.72998 -438.26901 1.8403113e-38
1052.05 -963.85797 -438.45001 1.8403113e-38
1036.75 -959.27899 -434.52301 1.8403113e-38
1062.55 -945.14001 -433.98499 1.8403113e-38
1071.05 -946.07501 -435.63901 1.8403113e-38
1105.53 -935.14502 -437.53 1.8403113e-38
1087.37 -929.93701 -432.94299 1.8403113e-38
1116.46 -916.05902 -433.01199 1.8403113e-38
1131.23 -919.36298 -436.43799 1.8403113e-38
1148.13 -902.52698 -433.60501 1.8403113e-38
1160.33 -904.41699 -436.16 1.8403113e-38
1199.2 -892.63397 -438.46799 1.8403113e-38
1184.23 -889.92297 -435.20401 1.8403113e-38
1214.91 -874.22601 -434.92999 1.8403113e-38
1229.0699 -876.29999 -437.85599 1.8403113e-38
1264.27 -861.11902 -438.46701 1.8403113e-38
1248.21 -858.67499 -435.11899 1.8403113e-38
1282.33 -842.50201 -435.23499 1.8403113e-38
1293.89 -843.06799 -437.254 1.8403113e-38
1323.73 -827.74402 -436.96899 1.8403113e-38
1333.5 -827.46503 -438.427 1.8403113e-38
1373.97 -810.98499 -439.45001 1.8403113e-38
1354.88 -808.66602 -435.66199 1.8403113e-38
1412.49 -792.78802 -439.60101 1.8403113e-38
1388.64 -789.51703 -434.745 1.8403113e-38
1430.6801 -771.65198 -435.564 1.8403113e-38
1472.61 -752.53699 -435.95401 1.8403113e-38
1521.99 -733.914 -437.689 1.8403113e-38
1563.63 -712.16998 -437.173 1.8403113e-38
1613.6899 -690.84698 -438.13101 1.8403113e-38
1654.91 -666.46503 -436.68301 1.8403113e-38
1712.28 -643.43597 -438.242 1.8403113e-38
1760.72 -617.38599 -437.39499 1.8403113e-38
1811.77 -590.20001 -436.59 1.8403113e-38
1872.27 -562.45697 -437.10001 1.8403113e-38
1931.47 -532.71198 -436.74899 1.8403113e-38
1997.16 -501.58401 -436.97601 1.8403113e-38
2072.29 -468.89099 -438.18701 1.8403113e-38
216.192 -1339.17 -428.77399 1.8403113e-38
268.68701 -1315.79 -429.44501 1.8403113e-38
2044.5601 -429.92099 -421.021 1.8403113e-38
2037.5699 -425.32599 -418.40701 1.8403113e-38
1954.9 -390.71899 -393.95401 1.8403113e-38
1945.85 -386.34698 -391.08701 1.8403113e-38
3613.1001 404.47299 -396.565 1.8403113e-38
3648.8101 418.66101 -397.58401 1.8403113e-38
1919.05 -352.767 -375.83502 1.8403113e-38
1900.51 -320.005 -362.16199 1.8403113e-38
1900.22 -315.89401 -360.76901 1.8403113e-38
3539.78 453.827 -368.76501 1.8403113e-38
3562.6299 465.759 -368.483 1.8403113e-38
3625.8799 538.22803 -354.77899 1.8403113e-38
3608.73 541.34698 -351.03699 1.8403113e-38
1883.505 -283.74548 -347.58649 1.8403113e-38
-569.76599 -1425.39 -332.31601 1.8403113e-38
1878.08 -251.632 -336.20599 1.8403113e-38
1877.67 -247.563 -334.80801 1.8403113e-38
3612.47 601.12097 -332.04901 1.8403113e-38
-635.43903 -1426.04 -322.11099 1.8403113e-38
-630.961 -1418.7 -320.41599 1.8403113e-38
-609.17004 -1417.4301 -323.45749 1.8403113e-38
-588.25696 -1419.255 -327.37201 1.8403113e-38
-564.32202 -1414.1801 -329.508 1.8403113e-38
1874.09 -215.51849 -323.74298 1.8403113e-38
3614.6001 608.83698 -329.86099 1.8403113e-38
-699.24298 -1420.27 -310.095 1.8403113e-38
-677.461 -1421.125 -313.83301 1.8403113e-38
-653.87848 -1418.855 -316.83002 1.8403113e-38
1876.87 -183.069 -313.55399 1.8403113e-38
1873.37 -179.24899 -311.74899 1.8403113e-38
2597.6499 155.30701 -317.073 1.8403113e-38
2601.5 161.37601 -315.69501 1.8403113e-38
3614.28 668.12097 -310.39001 1.8403113e-38
-700.62299 -1420.36 -309.90601 1.8403113e-38
-743.27454 -1413.9351 -301.035 1.8403113e-38
-722.49146 -1419.0649 -306.01199 1.8403113e-38
1883.9199 -145.961 -302.51801 1.8403113e-38
3613.3999 675.11798 -307.95801 1.8403113e-38
-791.27301 -1412.67 -293.004 1.8403113e-38
-789.91302 -1412.72 -293.237 1.8403113e-38
-767.3515 -1414.405 -297.3685 1.8403113e-38
1895.85 -112.126 -293.328 1.8403113e-38
1895.2 -108.04 -291.88699 1.8403113e-38
-815.95001 -1413.875 -289.48401 1.8403113e-38
-834.30701 -1402 -282.68399 1.8403113e-38
-829.30798 -1396.3101 -281.61099 1.8403113e-38
-483.72699 -1241.97 -285.883 1.8403113e-38
-476.21701 -1223.27 -280.95001 1.8403113e-38
-194.77701 -1091.675 -282.4975 1.8403113e-38
-180.83701 -1091.41 -284.62201 1.8403113e-38
-181.539 -1083.73 -281.99701 1.8403113e-38
29.7484 -1000.73 -288.332 1.8403113e-38
12.9118 -985.80103 -280.76849 1.8403113e-38
24.176001 -978.815 -280.267 1.8403113e-38
1907.1 -71.6353 -281.85001 1.8403113e-38
1915.6899 -74.708504 -284.21899 1.8403113e-38
3558.2 719.15997 -284.77301 1.8403113e-38
-221.38699 -1091.66 -278.26901 1.8403113e-38
-248.15649 -1085.37 -271.96399 1.8403113e-38
-235.0905 -1089.3049 -275.3255 1.8403113e-38
-221.759 -1085.8199 -276.298 1.8403113e-38
-207.95099 -1085.5601 -278.40451 1.8403113e-38
-23.0961 -991.43799 -276.90201 1.8403113e-38
-24.825199 -987.96399 -275.48999 1.8403113e-38
-12.8361 -981.94397 -275.42001 1.8403113e-38
-38.001999 -979.54999 -270.64301 1.8403113e-38
-14.6341 -978.50702 -274.009 1.8403113e-38
-1.89742 -975.961 -275.19601 1.8403113e-38
-4.72509 -968.91998 -272.44101 1.8403113e-38
1960.4 -32.8456 -277.60001 1.8403113e-38
1968.47 -27.3447 -277.078 1.8403113e-38
2021.95 13.4358 -272.20499 1.8403113e-38
2031.9 19.503401 -271.79501 1.8403113e-38
3494.8799 708.14001 -278.336 1.8403113e-38
-810.08801 -1328.33 -262.39301 1.8403113e-38
-806.99103 -1321.66 -260.70001 1.8403113e-38
-167.75699 -1035.26 -268.30353 1.8403113e-38
-108.913 -985.82703 -261.448 1.8403113e-38
-97.387054 -986.57251 -263.52148 1.8403113e-38
-85.947998 -982.86597 -264.12201 1.8403113e-38
-74.193451 -981.78149 -265.63199 1.8403113e-38
-63.131302 -976.30701 -265.59351 1.8403113e-38
-52.305153 -970.19952 -265.31049 1.8403113e-38
-40.754398 -970.48602 -267.237 1.8403113e-38
-814.34253 -1298.225 -251.856 1.8403113e-38
-257.80399 -1052.66 -259.71799 1.8403113e-38
-256.659 -1049.05 -258.71799 1.8403113e-38
-155.9675 -995.638 -257.19647 1.8403113e-38
-110.372 -978.33301 -258.76199 1.8403113e-38
-133.506 -966.75299 -251.298 1.8403113e-38
-123.201 -961.789 -251.30701 1.8403113e-38
-122.698 -958.93298 -250.452 1.8403113e-38
-822.75403 -1275.49 -243.073 1.8403113e-38
-819.93201 -1273.1801 -242.76601 1.8403113e-38
-264.78448 -1014.3199 -246.04999 1.8403113e-38
-145.21201 -966.34052 -249.306 1.8403113e-38
-134.41499 -962.96899 -249.91499 1.8403113e-38
3312.1899 711.04797 -248.39799 1.8403113e-38
3328.3899 722.849 -247.103 1.8403113e-38
-835.21497 -1260.8149 -236.2905 1.8403113e-38
-853.88098 -1254.65 -231.30901 1.8403113e-38
-273.50348 -992.81946 -237.625 1.8403113e-38
-284.703 -987.60699 -234.14101 1.8403113e-38
-282.323 -977.453 -231.192 1.8403113e-38
-968.5365 -1301.385 -228.427 1.8403113e-38
-899.58801 -1250.27 -222.621 1.8403113e-38
-900.039 -1249.26 -222.22 1.8403113e-38
-871.44501 -1245.2151 -225.4325 1.8403113e-38
-850.20203 -1248.1899 -229.77699 1.8403113e-38
-390.26901 -1014.12 -226.075 1.8403113e-38
-387.42599 -1007.14 -224.241 1.8403113e-38
-358.086 -992.26801 -224.024 1.8403113e-38
-368.1275 -985.54053 -220.22751 1.8403113e-38
-356.052 -987.03699 -222.634 1.8403113e-38
-343.08801 -983.34998 -223.483 1.8403113e-38
-331.97601 -985.97302 -226.105 1.8403113e-38
-329.40302 -977.86603 -223.858 1.8403113e-38
-316.047 -971.51202 -223.895 1.8403113e-38
-315.57901 -967.492 -222.653 1.8403113e-38
-302.54001 -963.03601 -223.26199 1.8403113e-38
-292.02649 -966.43701 -226.04401 1.8403113e-38
-301.936 -958.08301 -221.735 1.8403113e-38
3223.1699 745.22803 -223.078 1.8403113e-38
3386.5 804.86298 -229.457 1.8403113e-38
3647.8899 959.15802 -220.388 1.8403113e-38
-1074.365 -1323.575 -218.905 1.8403113e-38
-972.66101 -1273.46 -218.62601 1.8403113e-38
-967.66602 -1269.3199 -218.062 1.8403113e-38
-979.66803 -1252.1 -210.517 1.8403113e-38
3583.0701 929.53998 -219.80499 1.8403113e-38
-1073.7 -1290.76 -208.263 1.8403113e-38
-975.44202 -1245.84 -209.136 1.8403113e-38
-1077.36 -1263.505 -198.75351 1.8403113e-38
-1082.24 -1237.5 -189.459 1.8403113e-38
-1074.1 -1231.08 -188.649 1.8403113e-38
-1076.75 -1203.92 -179.33099 1.8403113e-38
-1078.9199 -1177.84 -170.44351 1.8403113e-38
2999.8401 796.00403 -171.01199 1.8403113e-38
3077.1799 817.23401 -176.32899 1.8403113e-38
-1078.49 -1150.86 -161.673 1.8403113e-38
-1078.63 -1149.67 -161.26199 1.8403113e-38
-1081.2649 -1126.14 -153.13651 1.8403113e-38
2891.8701 807.81403 -150.01199 1.8403113e-38
2955.1499 838.19897 -150.10001 1.8403113e-38
-1081.05 -1100.8199 -144.87601 1.8403113e-38
-1081.08 -1099.64 -144.487 1.8403113e-38
-1080.59 -1074.25 -136.24899 1.8403113e-38
-1079.05 -1074.17 -136.465 1.8403113e-38
3119.3201 955.67297 -137.666 1.8403113e-38
3124.3799 964.56201 -135.55701 1.8403113e-38
-1085.41 -1054.215 -128.91901 1.8403113e-38
-1084.2 -1030.02 -121.183 1.8403113e-38
-1084.89 -1029.47 -120.896 1.8403113e-38
3612.24 1231.0699 -125.662 1.8403113e-38
-1085.505 -1007.23 -113.5125 1.8403113e-38
3162.6001 1036.47 -118.066 1.8403113e-38
-1085.9351 -984.85254 -106.1145 1.8403113e-38
-1086.66 -963.18347 -98.901505 1.8403113e-38
-1089.66 -943.00299 -91.814697 1.8403113e-38
-1081.58 -938.66998 -91.676804 1.8403113e-38
3164.71 1109.03 -94.632202 1.8403113e-38
3178.3301 1107.8199 -97.190903 1.8403113e-38
-1085.5 -920.01703 -84.945198 1.8403113e-38
-1086 -919.45898 -84.6838 1.8403113e-38
-1087.77 -899.78802 -77.959503 1.8403113e-38
-1079.6 -895.70398 -77.916801 1.8403113e-38
-1082.835 -876.97205 -71.268501 1.8403113e-38
-1082.825 -857.08801 -64.756851 1.8403113e-38
-1084.13 -838.28101 -58.388298 1.8403113e-38
-1081.48 -817.71948 -52.073349 1.8403113e-38
-1081.21 -798.41498 -45.7939 1.8403113e-38
-1074.65 -795.86298 -45.998402 1.8403113e-38
1718.79 552.646 -47.476398 1.8403113e-38
-1080.1 -780.078 -39.962299 1.8403113e-38
