# .PCD v0.7 - Point Cloud Data file format
VERSION 0.7
FIELDS x y z rgb
SIZE 4 4 4 4
TYPE F F F F
COUNT 1 1 1 1
WIDTH 315
HEIGHT 1
VIEWPOINT 0 0 0 1 0 0 0
POINTS 315
DATA ascii
907.58398 -623.539 -430.67999 1.8403113e-38
995.21802 -416.03101 -430.353 1.8403113e-38
1056.14 -273.07501 -430.31 1.8403113e-38
1178.29 12.4685 -430.383 1.8403113e-38
1253.6 187.366 -430.58899 1.8403113e-38
1279.5 251.855 -430.04099 1.8403113e-38
1297.3 287.34299 -430.92599 1.8403113e-38
1312.5699 322.81799 -430.96799 1.8403113e-38
1342.63 396.60501 -430.483 1.8403113e-38
1363.46 437.96301 -431.543 1.8403113e-38
1382.5 479.77399 -431.94101 1.8403113e-38
1408.34 526.59003 -433.89899 1.8403113e-38
1427.14 571.16199 -433.82001 1.8403113e-38
1443.24 615.60797 -432.85599 1.8403113e-38
237.22701 -2120.8101 -420.314 1.8403113e-38
280.37399 -2022.13 -420.651 1.8403113e-38
318.97601 -1928.61 -420.20401 1.8403113e-38
388.26199 -1767.62 -420.384 1.8403113e-38
404.51099 -1732.47 -420.79901 1.8403113e-38
419.763 -1697.24 -420.86899 1.8403113e-38
423.78101 -1695.4301 -421.95499 1.8403113e-38
434.01901 -1661.96 -420.59698 1.8403113e-38
437.22198 -1658.3101 -421.14801 1.8403113e-38
450.255 -1633.8 -422.00699 1.8403113e-38
450.73001 -1623.87 -420.74701 1.8403113e-38
463.93701 -1596.13 -421.202 1.8403113e-38
531.47302 -1462.01 -424.63699 1.8403113e-38
528.81897 -1448.95 -421.88101 1.8403113e-38
541.50403 -1431.71 -423.664 1.8403113e-38
540.49103 -1422.0699 -421.94601 1.8403113e-38
552.69299 -1404.75 -423.556 1.8403113e-38
551.96997 -1395.99 -422.061 1.8403113e-38
558.664 -1370.4399 -420.64999 1.8403113e-38
562.289 -1369.0699 -421.66699 1.8403113e-38
571.69653 -1345.2749 -421.41449 1.8403113e-38
583.396 -1322.34 -422.052 1.8403113e-38
596.086 -1304.8 -423.79199 1.8403113e-38
594.64398 -1296.24 -422.086 1.8403113e-38
606.2865 -1277.83 -423.35199 1.8403113e-38
615.23901 -1253.1899 -422.82703 1.8403113e-38
627.21698 -1236.14 -424.39899 1.8403113e-38
624.09302 -1226.26 -421.94101 1.8403113e-38
636.336 -1212.9399 -424.13501 1.8403113e-38
634.82001 -1205.36 -422.54401 1.8403113e-38
646.14099 -1191.1899 -424.30801 1.8403113e-38
646.92798 -1186.58 -423.91199 1.8403113e-38
658.58002 -1172.99 -425.87 1.8403113e-38
654.27502 -1162.65 -422.952 1.8403113e-38
662.39398 -1145.47 -423.21301 1.8403113e-38
670.63501 -1149.3199 -426.52301 1.8403113e-38
672.01099 -1125.0601 -423.51501 1.8403113e-38
671.854 -1119.79 -422.70999 1.8403113e-38
685.03699 -1106.04 -425.15649 1.8403113e-38
696.5 -1088.13 -426.4335 1.8403113e-38
707.15997 -1072.03 -427.70099 1.8403113e-38
703.97498 -1064.21 -425.51599 1.8403113e-38
711.4505 -1045.4851 -425.34201 1.8403113e-38
716.45697 -1024.85 -424.069 1.8403113e-38
720.04102 -1023.48 -425.07199 1.8403113e-38
730.70898 -1010.34 -426.76501 1.8403113e-38
734.27502 -1008.9 -427.75299 1.8403113e-38
735.22546 -985.49951 -424.72601 1.8403113e-38
748.23297 -972.27502 -427.19 1.8403113e-38
750.25702 -969.56 -427.479 1.8403113e-38
758.69299 -954.85602 -428.20099 1.8403113e-38
756.91901 -949.255 -426.806 1.8403113e-38
764.87952 -932.27148 -427.043 1.8403113e-38
775.7915 -915.46399 -428.29352 1.8403113e-38
782.91699 -896.10254 -427.91101 1.8403113e-38
785.74298 -874.117 -425.71448 1.8403113e-38
800.802 -862.18201 -429.04901 1.8403113e-38
795.34003 -854.83502 -426.17099 1.8403113e-38
803.70099 -840.68103 -426.94601 1.8403113e-38
801.328 -835.39697 -425.396 1.8403113e-38
812.26251 -820.89697 -426.98401 1.8403113e-38
813.95203 -801.18701 -424.73199 1.8403113e-38
817.15302 -799.19897 -425.51901 1.8403113e-38
827.99701 -784.61353 -427.06451 1.8403113e-38
833.08801 -765.15698 -425.98749 1.8403113e-38
837.82202 -745.69849 -424.79053 1.8403113e-38
842.80701 -728.31201 -423.974 1.8403113e-38
851.85199 -728.85303 -427.07901 1.8403113e-38
859.14551 -712.42798 -427.17249 1.8403113e-38
861.85498 -694.091 -425.45801 1.8403113e-38
870.93103 -694.28998 -428.52499 1.8403113e-38
872.896 -675.68451 -426.52301 1.8403113e-38
884.81549 -659.21399 -428.15851 1.8403113e-38
895.49402 -643.86298 -429.53799 1.8403113e-38
892.177 -639.19397 -427.76099 1.8403113e-38
898.479 -624.03003 -427.703 1.8403113e-38
908.80396 -604.88251 -428.422 1.8403113e-38
916.07098 -586.41602 -428.21448 1.8403113e-38
919.85797 -568.672 -426.94601 1.8403113e-38
924.40601 -566.45898 -428.15201 1.8403113e-38
926.08301 -549.87701 -426.34299 1.8403113e-38
930.59802 -547.58002 -427.526 1.8403113e-38
938.42102 -532.45502 -427.983 1.8403113e-38
941.98901 -529.84497 -428.80399 1.8403113e-38
942.21802 -512.93103 -426.46301 1.8403113e-38
952.19702 -511.608 -429.61401 1.8403113e-38
948.461 -493.90701 -425.83301 1.8403113e-38
952.87097 -491.34601 -426.94299 1.8403113e-38
966.33704 -475.11301 -429.13049 1.8403113e-38
968.41199 -456.77399 -427.203 1.8403113e-38
971.81403 -453.87799 -427.92899 1.8403113e-38
977.10901 -434.26199 -426.897 1.8403113e-38
980.297 -438.112 -428.51401 1.8403113e-38
989.08801 -418.767 -428.69199 1.8403113e-38
996.8595 -397.38348 -428.23651 1.8403113e-38
1003.12 -377.41 -427.47852 1.8403113e-38
1005.12 -358.758 -425.48001 1.8403113e-38
1015.84 -355.948 -428.668 1.8403113e-38
1017.38 -338.82599 -426.73401 1.8403113e-38
1020.49 -335.48599 -427.29999 1.8403113e-38
1025.53 -318.40302 -426.54501 1.8403113e-38
1031.4399 -315.052 -428.043 1.8403113e-38
1037.705 -296.0025 -427.41852 1.8403113e-38
1042.75 -276.79099 -426.35901 1.8403113e-38
1055.1399 -253.661 -427.20099 1.8403113e-38
1063.335 -232.0685 -426.85748 1.8403113e-38
1071.6801 -211.96899 -426.77802 1.8403113e-38
1076.36 -208.03799 -427.78101 1.8403113e-38
1073.02 -190.35001 -424.13501 1.8403113e-38
1085.22 -185.668 -427.54999 1.8403113e-38
1094.275 -164.7635 -427.5925 1.8403113e-38
1092.59 -144.827 -424.17999 1.8403113e-38
1108.4301 -139.175 -428.673 1.8403113e-38
1105.1 -121.075 -424.97198 1.8403113e-38
1116.13 -115.768 -427.90399 1.8403113e-38
1119.09 -96.562302 -426.14999 1.8403113e-38
1129.08 -91.162804 -428.72299 1.8403113e-38
1126.04 -72.6884 -425.06601 1.8403113e-38
1140.66 -66.239502 -429.03601 1.8403113e-38
1137.29 -47.625301 -425.246 1.8403113e-38
1147.1 -41.801899 -427.698 1.8403113e-38
1143.39 -23.1255 -423.78699 1.8403113e-38
1159.66 -15.6813 -428.17099 1.8403113e-38
1163.08 4.8832502 -426.37399 1.8403113e-38
1174.78 31.777 -426.448 1.8403113e-38
1184.28 38.262001 -428.702 1.8403113e-38
1186.92 59.3946 -426.56201 1.8403113e-38
1194.45 65.590897 -428.198 1.8403113e-38
1197.61 87.240997 -426.16 1.8403113e-38
1212.42 95.775299 -429.89899 1.8403113e-38
1207.77 115.539 -425.517 1.8403113e-38
1223.36 124.669 -429.431 1.8403113e-38
1219.23 144.877 -425.16 1.8403113e-38
1226.42 151.608 -426.604 1.8403113e-38
1237.42 177.242 -426.62201 1.8403113e-38
1247.6899 207.685 -425.70801 1.8403113e-38
1255.53 215.12601 -427.26999 1.8403113e-38
1265.49 241.739 -426.798 1.8403113e-38
1281.6801 276.172 -427.29599 1.8403113e-38
1297.16 311.29999 -427.45499 1.8403113e-38
1312.79 347.505 -427.51099 1.8403113e-38
1320.03 355.76801 -428.75299 1.8403113e-38
1328.53 384.81601 -427.44699 1.8403113e-38
1349.58 425.83301 -428.63199 1.8403113e-38
1361.9301 463.758 -427.34201 1.8403113e-38
1387.21 509.64099 -429.24899 1.8403113e-38
1405.48 553.27399 -429.12399 1.8403113e-38
1422.75 597.74402 -428.54999 1.8403113e-38
1443.2 645.54901 -428.56299 1.8403113e-38
1447.47 654.23102 -428.74799 1.8403113e-38
190.47301 -2198.0901 -415.711 1.8403113e-38
212.899 -2166.96 -418.767 1.8403113e-38
216.187 -2154.1201 -418.03299 1.8403113e-38
237.97501 -2096.4099 -417.07599 1.8403113e-38
257.966 -2063.8799 -419.11899 1.8403113e-38
258.771 -2042.4 -416.31699 1.8403113e-38
281.59399 -2004.49 -418.539 1.8403113e-38
298.99701 -1969.73 -419.39499 1.8403113e-38
300.03101 -1953.08 -417.35999 1.8403113e-38
320.39001 -1914.8101 -418.70499 1.8403113e-38
336.16199 -1881.71 -419.25299 1.8403113e-38
338.035 -1870.75 -418.31299 1.8403113e-38
353.60999 -1840.37 -419.18399 1.8403113e-38
355.20999 -1829.42 -418.15399 1.8403113e-38
369.25101 -1797.09 -418.23401 1.8403113e-38
372.94901 -1793.5699 -418.96799 1.8403113e-38
389.97299 -1758.53 -419.65799 1.8403113e-38
405.672 -1722.48 -419.76001 1.8403113e-38
505.90302 -1464.2 -416.39099 1.8403113e-38
512.87 -1468.97 -419.405 1.8403113e-38
451.12601 -1513.03 -405.03601 1.8403113e-38
452.20401 -1505.89 -404.37601 1.8403113e-38
456.93301 -1470.36 -400.88 1.8403113e-38
479.633 -1464.1 -407.58401 1.8403113e-38
479.095 -1454.4 -406.017 1.8403113e-38
456.543 -1460.65 -399.362 1.8403113e-38
1005.2 412.263 -315.297 1.8403113e-38
1011.17 411.54199 -317.39801 1.8403113e-38
963.16498 407.26501 -301.94101 1.8403113e-38
967.90503 414.746 -302.45801 1.8403113e-38
967.62201 436.59399 -299.241 1.8403113e-38
968.15302 441.44299 -298.72601 1.8403113e-38
958.55402 457.237 -293.255 1.8403113e-38
967.83398 468.32001 -294.77701 1.8403113e-38
975.362 496.79001 -293.22699 1.8403113e-38
985.20099 508.69601 -294.819 1.8403113e-38
854.97205 436.83649 -261.49951 1.8403113e-38
822.45801 437.36652 -250.54001 1.8403113e-38
791.90503 436.22699 -240.476 1.8403113e-38
43.655899 -1281.09 -235.49001 1.8403113e-38
762.13898 436.806 -230.42999 1.8403113e-38
790.74597 439.50601 -239.619 1.8403113e-38
760.20898 439.37201 -229.41701 1.8403113e-38
738.56702 441.686 -221.842 1.8403113e-38
729.16302 437.70401 -219.26401 1.8403113e-38
715.92554 448.7785 -213.24951 1.8403113e-38
1405.1899 2055.3 -214.33 1.8403113e-38
1411.03 2050.1299 -217.022 1.8403113e-38
696.09698 455.73849 -205.61749 1.8403113e-38
3.9012499 -1116.01 -198.58701 1.8403113e-38
4.8758798 -1105.8199 -197.457 1.8403113e-38
-10.7924 -1092.79 -190.349 1.8403113e-38
676.974 462.87601 -198.1965 1.8403113e-38
665.60303 479.38199 -192.03101 1.8403113e-38
670.47699 479.89401 -193.589 1.8403113e-38
707.16302 548.20203 -196.105 1.8403113e-38
1347.92 2035.89 -197.93201 1.8403113e-38
-37.128101 -1132.8199 -187.256 1.8403113e-38
-49.549099 -1125.51 -182.054 1.8403113e-38
-36.310001 -1114.8101 -184.95599 1.8403113e-38
-24.419901 -1094.11 -185.976 1.8403113e-38
-27.590799 -1085.65 -183.70599 1.8403113e-38
-13.6429 -1088.3101 -188.754 1.8403113e-38
659.47101 494.80499 -187.774 1.8403113e-38
658.41699 520.33099 -183.772 1.8403113e-38
665.08099 531.96002 -184.341 1.8403113e-38
662.638 554.83099 -180.254 1.8403113e-38
1291.45 1959.51 -189.948 1.8403113e-38
-52.6422 -1114.97 -179.51199 1.8403113e-38
-67.512497 -1096.8 -171.937 1.8403113e-38
-65.669998 -1088.6801 -171.39301 1.8403113e-38
663.64801 582.25 -176.672 1.8403113e-38
667.20697 591.20599 -176.58299 1.8403113e-38
660.53003 608.35901 -171.897 1.8403113e-38
663.26202 616.64697 -171.627 1.8403113e-38
1251.59 1963.67 -176.01199 1.8403113e-38
1292.1899 2045.46 -177.911 1.8403113e-38
-93.519653 -1096.0449 -163.1235 1.8403113e-38
-81.1875 -1094.12 -166.976 1.8403113e-38
-78.926598 -1093.92 -167.705 1.8403113e-38
662.16699 643.737 -167.388 1.8403113e-38
657.32501 667.09802 -162.42799 1.8403113e-38
1245.99 2054.99 -161.086 1.8403113e-38
1251.89 2050.28 -163.73399 1.8403113e-38
-532.22998 -2088.3899 -158.12199 1.8403113e-38
-525.427 -2081.6699 -159.438 1.8403113e-38
-134.60849 -1116.505 -152.2955 1.8403113e-38
-106.126 -1034.42 -150.09599 1.8403113e-38
630.55902 638.94 -157.493 1.8403113e-38
625.94598 659.69897 -152.98199 1.8403113e-38
638.55402 681.552 -154.07899 1.8403113e-38
645.71399 719.29199 -151.08099 1.8403113e-38
663.18701 748.65302 -152.73199 1.8403113e-38
679.48999 801.60602 -150.62 1.8403113e-38
777.42401 1026.61 -151.239 1.8403113e-38
781.05402 1039.92 -150.55099 1.8403113e-38
-178.7915 -1150.5701 -142.375 1.8403113e-38
-164.33701 -1131.2 -144.444 1.8403113e-38
-161.483 -1123.33 -144.274 1.8403113e-38
-148.983 -1104.66 -145.791 1.8403113e-38
-146.334 -1096.75 -145.54601 1.8403113e-38
-120.767 -1040.96 -146.129 1.8403113e-38
-118.584 -1034.95 -146.00101 1.8403113e-38
-108.22 -1030.5699 -148.84399 1.8403113e-38
646.31598 792.87701 -140.76401 1.8403113e-38
680.59497 809.53802 -149.856 1.8403113e-38
1145.75 1951.7 -142.29601 1.8403113e-38
-499.59601 -1853.4 -135.45599 1.8403113e-38
-497.32501 -1826.27 -132.338 1.8403113e-38
-235.758 -1244.17 -136.686 1.8403113e-38
-247.35699 -1231.9301 -131.054 1.8403113e-38
-188.336 -1089.4301 -130.44 1.8403113e-38
-185.052 -1078.6801 -130.00301 1.8403113e-38
643.94 795.85999 -139.54201 1.8403113e-38
1133.3 1943.88 -139.24699 1.8403113e-38
-260.03601 -1196.24 -121.708 1.8403113e-38
-256.70499 -1191.66 -122.169 1.8403113e-38
-242.903 -1184.36 -125.744 1.8403113e-38
-222.827 -1165.48 -129.76601 1.8403113e-38
-200.26199 -1076.63 -124.619 1.8403113e-38
-198.289 -1078.78 -125.587 1.8403113e-38
1149.3 2047.28 -129.819 1.8403113e-38
1143.84 2052.5801 -127.235 1.8403113e-38
-492.367 -1723.78 -119.347 1.8403113e-38
-490.866 -1702.54 -116.814 1.8403113e-38
-318.974 -1253.2 -110.122 1.8403113e-38
-292.97501 -1206.26 -112.116 1.8403113e-38
-275.76199 -1205.035 -117.7015 1.8403113e-38
-285.77802 -1183.23 -111.231 1.8403113e-38
1099.95 2046.73 -113.381 1.8403113e-38
1093.54 2050.1101 -110.753 1.8403113e-38
-494.16449 -1634.09 -105.9255 1.8403113e-38
-309.37201 -1221.53 -108.809 1.8403113e-38
-496.93951 -1564.35 -95.027847 1.8403113e-38
1043.2 2045.64 -94.540199 1.8403113e-38
1053.6 2050.47 -97.332397 1.8403113e-38
-496.90701 -1498.67 -85.650398 1.8403113e-38
-497.47501 -1489.08 -84.0896 1.8403113e-38
1003.13 2044.21 -81.332298 1.8403113e-38
-503.11102 -1446.87 -76.16925 1.8403113e-38
996.71399 2047.29 -78.744797 1.8403113e-38
-519.33698 -1437.67 -69.423401 1.8403113e-38
-539.883 -1426.01 -60.8787 1.8403113e-38
-517.75403 -1423.4 -67.912697 1.8403113e-38
-533.58002 -1418.75 -61.951 1.8403113e-38
954.07898 2047.4001 -64.458397 1.8403113e-38
-556.56348 -1418.55 -54.229149 1.8403113e-38
912.867 2049.4399 -50.372299 1.8403113e-38
-598.18298 -1418.66 -40.313202 1.8403113e-38
-577.71503 -1417.5649 -47.008148 1.8403113e-38
906.82599 2053.1699 -47.8176 1.8403113e-38
