# .PCD v0.7 - Point Cloud Data file format
VERSION 0.7
FIELDS x y z rgb
SIZE 4 4 4 4
TYPE F F F F
COUNT 1 1 1 1
WIDTH 353
HEIGHT 1
VIEWPOINT 0 0 0 1 0 0 0
POINTS 353
DATA ascii
599.05298 623.83002 -420.13599 1.8403113e-38
587.073 639.95599 -420.07401 1.8403113e-38
582.78601 650.12701 -420.996 1.8403113e-38
573.26501 669.71997 -422.401 1.8403113e-38
568.63202 679.86798 -423.216 1.8403113e-38
558.07501 682.565 -420.69101 1.8403113e-38
546.08502 699.68103 -420.83899 1.8403113e-38
558.43799 699.38599 -424.40701 1.8403113e-38
532.62701 715.13202 -420.19699 1.8403113e-38
542.75702 711.992 -422.50201 1.8403113e-38
526.87701 724.33099 -420.48099 1.8403113e-38
522.10303 735.05701 -421.379 1.8403113e-38
515.06702 742.65002 -420.94 1.8403113e-38
507.95599 750.19501 -420.46799 1.8403113e-38
502.845 760.85699 -421.25299 1.8403113e-38
499.64899 774.69598 -423.28299 1.8403113e-38
483.73999 787.935 -421.44601 1.8403113e-38
492.229 782.14899 -422.70001 1.8403113e-38
478.63699 799.32898 -422.39099 1.8403113e-38
474.354 812.34802 -423.92499 1.8403113e-38
451.698 835.68799 -422.27301 1.8403113e-38
460.58099 830.16101 -423.698 1.8403113e-38
443.67999 842.80902 -421.44299 1.8403113e-38
438.267 854.90399 -422.44699 1.8403113e-38
433.133 867.836 -423.71201 1.8403113e-38
427.392 879.91901 -424.617 1.8403113e-38
409.60199 892.06201 -421.992 1.8403113e-38
421.06699 891.138 -425.16501 1.8403113e-38
403.48499 904.047 -422.76599 1.8403113e-38
398.81299 919.474 -424.702 1.8403113e-38
388.41101 922.75702 -422.349 1.8403113e-38
382.245 935.53601 -423.27802 1.8403113e-38
375.526 947.42499 -423.854 1.8403113e-38
369.38699 961.04999 -424.97198 1.8403113e-38
351.92499 976.72998 -423.203 1.8403113e-38
361.97 972.01398 -425.14401 1.8403113e-38
345.315 990.26898 -424.16501 1.8403113e-38
337.83499 1002 -424.483 1.8403113e-38
329.86499 1012.8 -424.45801 1.8403113e-38
322.72198 1026.27 -425.246 1.8403113e-38
315.073 1038.8 -425.68701 1.8403113e-38
304.48099 1043.13 -423.50201 1.8403113e-38
298.35199 1061.03 -425.54199 1.8403113e-38
290.203 1073.45 -425.811 1.8403113e-38
282.44699 1087.67 -426.57999 1.8403113e-38
273.93399 1100.01 -426.72699 1.8403113e-38
265.24799 1112.3101 -426.81201 1.8403113e-38
256.64801 1125.49 -427.112 1.8403113e-38
247.60699 1137.7 -427.07401 1.8403113e-38
238.151 1148.9301 -426.702 1.8403113e-38
227.127 1154.49 -424.65601 1.8403113e-38
219.224 1173.08 -426.32001 1.8403113e-38
209.504 1185.0699 -426.035 1.8403113e-38
199.612 1197 -425.68701 1.8403113e-38
190.35899 1212.65 -426.32401 1.8403113e-38
181.843 1232.98 -428.18201 1.8403113e-38
171.14799 1243.8 -427.35999 1.8403113e-38
147.774 1256.65 -423.246 1.8403113e-38
161.367 1260.25 -428.01401 1.8403113e-38
1400.3101 -520.58002 -410.146 1.8403113e-38
1377.01 -488.116 -410.26001 1.8403113e-38
1333.4 -426.67499 -410.62299 1.8403113e-38
1322.39 -411.85999 -410.565 1.8403113e-38
1301.89 -383.12399 -410.70499 1.8403113e-38
1290.5 -368.89801 -410.40701 1.8403113e-38
1281.85 -355.26401 -410.79099 1.8403113e-38
1277.88 -342.38599 -412.388 1.8403113e-38
1266.13 -328.685 -411.87201 1.8403113e-38
1256.1801 -315.39999 -411.798 1.8403113e-38
1242.27 -301.91 -410.604 1.8403113e-38
1235.9399 -289.35699 -411.436 1.8403113e-38
1225.66 -276.60199 -411.151 1.8403113e-38
1225.85 -264.789 -413.73999 1.8403113e-38
1214.4 -252.239 -413.06699 1.8403113e-38
1197.08 -239.575 -410.69299 1.8403113e-38
1191.2 -227.73599 -411.504 1.8403113e-38
1185.22 -215.996 -412.26501 1.8403113e-38
1176.26 -204.274 -412.147 1.8403113e-38
1169.13 -192.74001 -412.526 1.8403113e-38
1159.99 -181.30499 -412.29199 1.8403113e-38
1145.97 -170.017 -410.59 1.8403113e-38
1145.28 -158.86301 -412.78201 1.8403113e-38
1138.75 -147.806 -413.23499 1.8403113e-38
1127.35 -136.97701 -412.20499 1.8403113e-38
1124.47 -126.039 -413.70801 1.8403113e-38
1112.91 -115.515 -412.56601 1.8403113e-38
1107.95 -104.83 -413.40201 1.8403113e-38
1084.4399 -84.623703 -410.82599 1.8403113e-38
1082.11 -74.052399 -412.40799 1.8403113e-38
1070.1801 -64.349503 -410.98199 1.8403113e-38
1065.78 -54.098499 -411.888 1.8403113e-38
1061.3 -43.907299 -412.758 1.8403113e-38
1052 -34.326199 -412.08099 1.8403113e-38
1046.4301 -24.417601 -412.56699 1.8403113e-38
1039.83 -14.7148 -412.70901 1.8403113e-38
1028.45 -5.7851901 -411.27899 1.8403113e-38
1025.48 4.257 -412.561 1.8403113e-38
1015.86 13.2033 -411.65201 1.8403113e-38
1012.73 23.1255 -412.86301 1.8403113e-38
1008.6 32.847099 -413.733 1.8403113e-38
979.00098 58.217201 -410.47501 1.8403113e-38
991.71002 50.469101 -412.54901 1.8403113e-38
974.59802 67.587997 -411.19101 1.8403113e-38
971.96997 77.329399 -412.509 1.8403113e-38
961.88202 85.296997 -411.25299 1.8403113e-38
953.591 93.567398 -410.59 1.8403113e-38
952.58698 103.606 -412.44901 1.8403113e-38
942.34302 111.214 -411.07001 1.8403113e-38
936.00702 124.8985 -412.14301 1.8403113e-38
930.43298 138.765 -413.48001 1.8403113e-38
924.50702 147.31599 -413.57199 1.8403113e-38
917.61902 155.507 -413.30499 1.8403113e-38
907.98102 162.728 -412.021 1.8403113e-38
896.63 179.53999 -412.29099 1.8403113e-38
903.67902 171.62 -412.664 1.8403113e-38
892.19702 188.32201 -412.87201 1.8403113e-38
885.03699 196.08299 -412.43201 1.8403113e-38
884.00403 206.09 -414.276 1.8403113e-38
884.63397 216.802 -416.759 1.8403113e-38
875.52301 223.713 -415.56299 1.8403113e-38
876.84399 234.795 -418.32999 1.8403113e-38
872.83698 243.745 -419.07199 1.8403113e-38
859.43103 259.26099 -418.45999 1.8403113e-38
867.89001 252.291 -419.45099 1.8403113e-38
856.93799 268.84698 -419.784 1.8403113e-38
830.44098 277.88101 -413.93301 1.8403113e-38
849.23401 276.047 -419.064 1.8403113e-38
820.16803 283.548 -412.12799 1.8403113e-38
820.82501 294.54199 -414.67999 1.8403113e-38
813.823 301.73599 -414.16599 1.8403113e-38
807.38251 314.57199 -415.02649 1.8403113e-38
792.547 322.828 -412.436 1.8403113e-38
787.83099 331.069 -412.81799 1.8403113e-38
776.57202 346.48999 -412.81699 1.8403113e-38
787.13 341.60599 -414.87299 1.8403113e-38
772.46899 355.08301 -413.45401 1.8403113e-38
771.50299 365.60599 -415.42801 1.8403113e-38
751.771 375.67001 -411.78699 1.8403113e-38
762.44 371.19901 -413.96399 1.8403113e-38
754.513 388.68399 -415.38501 1.8403113e-38
749.25299 396.61801 -415.54099 1.8403113e-38
741.591 402.93301 -414.64401 1.8403113e-38
726.16302 415.30301 -412.76199 1.8403113e-38
736.21698 410.76001 -414.74301 1.8403113e-38
729.09601 429.01401 -416.56601 1.8403113e-38
717.43298 432.30899 -413.84399 1.8403113e-38
715.58899 442.73901 -415.54001 1.8403113e-38
704.867 458.495 -415.76801 1.8403113e-38
710.63599 450.92099 -415.84 1.8403113e-38
701.25 467.76599 -416.694 1.8403113e-38
697.539 477.03 -417.591 1.8403113e-38
676.12598 484.08899 -412.811 1.8403113e-38
686.46399 480.33099 -415.043 1.8403113e-38
609.43903 606.17297 -419.401 1.8403113e-38
603.659 614.31598 -419.448 1.8403113e-38
592.48297 631.20203 -419.78601 1.8403113e-38
572.97803 653.74799 -418.88901 1.8403113e-38
461.33499 810.60199 -419.72299 1.8403113e-38
121.948 1255.74 -415.45801 1.8403113e-38
134.599 1254.8199 -418.98099 1.8403113e-38
1832.23 -1149.8101 -402.11401 1.8403113e-38
1808.64 -1117.6801 -402.073 1.8403113e-38
1790 -1088.6 -402.832 1.8403113e-38
1780.8101 -1064.54 -405.29401 1.8403113e-38
1754.4 -1032.8199 -404.33701 1.8403113e-38
1735.6801 -1005.26 -404.74799 1.8403113e-38
1718.46 -978.867 -405.345 1.8403113e-38
1699.13 -952.03998 -405.42001 1.8403113e-38
1681.3199 -926.35797 -405.69299 1.8403113e-38
1656.86 -898.39801 -404.50299 1.8403113e-38
1643.9301 -875.685 -405.57501 1.8403113e-38
1626.2 -851.43597 -405.564 1.8403113e-38
1613.6899 -829.64398 -406.56299 1.8403113e-38
1594.53 -805.69598 -406.06799 1.8403113e-38
1576.95 -782.789 -405.815 1.8403113e-38
1561.9 -761.203 -406.022 1.8403113e-38
1546.62 -739.91101 -406.099 1.8403113e-38
1531.12 -718.91498 -406.047 1.8403113e-38
1517.27 -698.82397 -406.285 1.8403113e-38
1497.62 -677.229 -405.14099 1.8403113e-38
1486.14 -658.58801 -405.76801 1.8403113e-38
1472.62 -639.61298 -405.86301 1.8403113e-38
1458.9 -620.89697 -405.84601 1.8403113e-38
1446.88 -602.96802 -406.15799 1.8403113e-38
1431.86 -584.50598 -405.70401 1.8403113e-38
1424.2 -568.29602 -406.92999 1.8403113e-38
1412.61 -551.28497 -407.172 1.8403113e-38
1399.91 -534.26501 -407.091 1.8403113e-38
1381.62 -502.64301 -408.5 1.8403113e-38
1361.8 -471.52399 -409.349 1.8403113e-38
1347.39 -455.39801 -408.573 1.8403113e-38
1336.64 -440.254 -408.664 1.8403113e-38
1304.55 -396.16599 -408.689 1.8403113e-38
1087.65 -95.1595 -409.50601 1.8403113e-38
989.45099 39.6791 -409.57001 1.8403113e-38
660.78302 483.45499 -408.164 1.8403113e-38
591.26898 572.62097 -406.85901 1.8403113e-38
108.155 1248.87 -409.92899 1.8403113e-38
83.5811 1253.9399 -403.79199 1.8403113e-38
95.875702 1251.46 -406.875 1.8403113e-38
2311.03 -1860.9301 -390.293 1.8403113e-38
2270.21 -1803.08 -390.707 1.8403113e-38
2232.74 -1748.8 -391.33899 1.8403113e-38
2194.5701 -1695.26 -391.604 1.8403113e-38
2165.6699 -1648.96 -393.04099 1.8403113e-38
2136.1799 -1603.26 -394.17999 1.8403113e-38
2104.4399 -1557.08 -394.755 1.8403113e-38
2070.4299 -1510.5 -394.75 1.8403113e-38
2044.3 -1469.71 -395.819 1.8403113e-38
2016.8101 -1428.95 -396.48499 1.8403113e-38
1985.39 -1386.74 -396.30701 1.8403113e-38
1962.9 -1350.54 -397.46201 1.8403113e-38
1939.11 -1314.3101 -398.241 1.8403113e-38
1916.62 -1279.51 -399.09399 1.8403113e-38
1885.88 -1240.95 -398.32999 1.8403113e-38
1862.52 -1207.14 -398.72101 1.8403113e-38
1839.65 -1174.24 -399.05399 1.8403113e-38
585.578 514.06 -392.621 1.8403113e-38
586.63599 527.89001 -395.89899 1.8403113e-38
582.24799 536.41602 -396.439 1.8403113e-38
582.98199 550.36298 -399.647 1.8403113e-38
68.994797 1238.02 -396.08801 1.8403113e-38
56.942101 1241.22 -393.23001 1.8403113e-38
2689.48 -2416.1699 -382.42001 1.8403113e-38
2639.27 -2338.6399 -384.293 1.8403113e-38
2586.4299 -2260.8899 -385.44199 1.8403113e-38
2537.27 -2187.79 -386.67401 1.8403113e-38
2495.8701 -2122.22 -388.57001 1.8403113e-38
2447.1899 -2052.76 -389.16299 1.8403113e-38
2396.76 -1983.66 -389.16501 1.8403113e-38
2348.6399 -1917.84 -389.14001 1.8403113e-38
590.81897 458.20401 -382.177 1.8403113e-38
601.46503 456.00201 -384.83401 1.8403113e-38
612.84601 454.27701 -387.81 1.8403113e-38
588.521 467.89001 -383.57901 1.8403113e-38
586.79797 478.23499 -385.293 1.8403113e-38
580.86401 484.71799 -384.939 1.8403113e-38
584.33502 500.31699 -389.30701 1.8403113e-38
31.612 1235.7 -384.59799 1.8403113e-38
44.6539 1242.38 -389.867 1.8403113e-38
3174.3201 -3133.77 -370.987 1.8403113e-38
3082.4299 -3003.29 -371.96899 1.8403113e-38
3006.6699 -2890.29 -373.94101 1.8403113e-38
2935.3401 -2783.9399 -375.79001 1.8403113e-38
2872.3999 -2687.3301 -378.013 1.8403113e-38
2795.0801 -2581.1201 -378.07101 1.8403113e-38
2737.8401 -2494.03 -379.92999 1.8403113e-38
18.7964 1229.85 -379.57599 1.8403113e-38
-5.34483 1233.3101 -373.22101 1.8403113e-38
7.4334302 1240.36 -378.491 1.8403113e-38
3247.4099 -3250.4299 -367.44101 1.8403113e-38
-29.8881 1229.53 -365.194 1.8403113e-38
-17.8573 1228.0699 -368.41901 1.8403113e-38
-551.883 1931.8101 -362.418 1.8403113e-38
3226.23 -3282.01 -354.439 1.8403113e-38
-42.5947 1216.27 -358.61301 1.8403113e-38
-567.091 1917.25 -354.823 1.8403113e-38
3209.8 -3318.21 -341.841 1.8403113e-38
-583.39899 1908.35 -348.12 1.8403113e-38
-605.547 1924.36 -345.043 1.8403113e-38
-631.55298 1954.5699 -343.88 1.8403113e-38
3447.9199 -3657.46 -339.05499 1.8403113e-38
3241.1001 -3400.77 -333.327 1.8403113e-38
-636.43201 1900.03 -330.742 1.8403113e-38
-664.55902 1936.54 -330.30801 1.8403113e-38
-708.00897 2026.3101 -336.79501 1.8403113e-38
-746.34302 2022.28 -324.66101 1.8403113e-38
-701.63397 1934.1801 -318.89999 1.8403113e-38
-761.97601 1944.52 -303.379 1.8403113e-38
-741.58502 1940.63 -308.54001 1.8403113e-38
-790.62299 1973.76 -301.23001 1.8403113e-38
-829.09998 2030.99 -302.20001 1.8403113e-38
2994.96 -3263.3401 -290.453 1.8403113e-38
-63.946899 964.03302 -298.21399 1.8403113e-38
-847.56702 2025.61 -295.61499 1.8403113e-38
-889.67499 2029.3199 -284.03299 1.8403113e-38
-868.26099 2026.63 -289.75 1.8403113e-38
-929.59998 2025.6899 -271.51501 1.8403113e-38
-908.09497 2023.4 -277.345 1.8403113e-38
2848.6299 -3166.22 -268.271 1.8403113e-38
-950.82599 2026.84 -265.521 1.8403113e-38
2814.6001 -3180.8401 -255.129 1.8403113e-38
-972.47803 2028.7 -259.55499 1.8403113e-38
-994.203 2030.35 -253.522 1.8403113e-38
2804.6399 -3220.3701 -243.72 1.8403113e-38
-88.194504 727.55103 -240.343 1.8403113e-38
-80.190498 737.625 -244.858 1.8403113e-38
-1012.57 2023.49 -246.649 1.8403113e-38
2777.1299 -3241.6899 -231.05499 1.8403113e-38
-111.24 720.31097 -232.01401 1.8403113e-38
-95.9039 727.16302 -237.993 1.8403113e-38
-103.586 730.61603 -236.476 1.8403113e-38
-262.45099 926.11499 -231.718 1.8403113e-38
-253.789 931.78198 -235.481 1.8403113e-38
-1014.95 1978.84 -236.369 1.8403113e-38
-133.491 701.66699 -221.472 1.8403113e-38
-126.217 709.258 -225.239 1.8403113e-38
-118.667 706.992 -226.97301 1.8403113e-38
-275.26147 917.46204 -226.09549 1.8403113e-38
-291.14801 928.12799 -223.713 1.8403113e-38
-1013.07 1926.03 -225.593 1.8403113e-38
-1036.59 1932.63 -220.09399 1.8403113e-38
2735.8899 -3248.05 -217.56599 1.8403113e-38
-162.892 696.086 -211.631 1.8403113e-38
-155.612 698.07001 -214.19701 1.8403113e-38
-144.465 697.48645 -217.349 1.8403113e-38
-315.03149 928.55048 -216.7825 1.8403113e-38
-299.591 922.14301 -219.94701 1.8403113e-38
-337.939 970.60999 -219.07201 1.8403113e-38
-1086.17 1996.21 -219.158 1.8403113e-38
2722.25 -3284.24 -205.793 1.8403113e-38
-185.30499 698.55103 -205.57001 1.8403113e-38
-174.168 698.36401 -208.8045 1.8403113e-38
-201.04401 706.70898 -202.69299 1.8403113e-38
-192.994 701.19702 -203.87801 1.8403113e-38
-209.87399 718.01501 -202.524 1.8403113e-38
-222.209 755.62402 -206.967 1.8403113e-38
2754.79 -3372.5601 -196.41 1.8403113e-38
2739.8999 -3409.03 -184.203 1.8403113e-38
2978.0901 -3798.7 -170.619 1.8403113e-38
2792.53 -3524.1101 -174.985 1.8403113e-38
2811.8899 -3660.76 -151.355 1.8403113e-38
2699.54 -3582.8601 -135.041 1.8403113e-38
-513.47101 657.495 -100.281 1.8403113e-38
-506.14499 659.76599 -102.923 1.8403113e-38
-506.90399 679.10498 -106.849 1.8403113e-38
-500.66101 684.01599 -109.738 1.8403113e-38
-528.39697 636.99402 -91.4944 1.8403113e-38
-529.44202 655.40601 -95.137703 1.8403113e-38
-523.47302 660.50299 -97.986298 1.8403113e-38
-556.50098 633.61951 -82.507797 1.8403113e-38
-545.54303 637.19702 -86.496902 1.8403113e-38
-538.841 640.664 -89.211403 1.8403113e-38
977.94598 -1510.2 -73.629898 1.8403113e-38
-586.1825 624.30298 -71.782394 1.8403113e-38
-575.56299 628.745 -75.857803 1.8403113e-38
-566.448 628.15802 -78.411598 1.8403113e-38
949.73297 -1520.04 -63.223301 1.8403113e-38
961.35999 -1512.0601 -68.352997 1.8403113e-38
-611.89099 615.02399 -62.233398 1.8403113e-38
-603.80402 616.56097 -64.940498 1.8403113e-38
-595.19397 617.164 -67.601303 1.8403113e-38
959.42603 -1579.54 -53.305801 1.8403113e-38
976.41803 -1577.86 -58.662102 1.8403113e-38
-615.21503 566.091 -50.7565 1.8403113e-38
-605.77899 565.258 -53.352001 1.8403113e-38
-611.95099 587.58698 -56.328499 1.8403113e-38
-614.48999 605.04401 -59.3279 1.8403113e-38
939.70099 -1601.7 -42.752499 1.8403113e-38
949.62402 -1590.66 -48.0383 1.8403113e-38
-631.39001 550.95099 -42.752499 1.8403113e-38
-616.04901 554.552 -48.035099 1.8403113e-38
-634.211 567.41901 -45.4566 1.8403113e-38
