# .PCD v0.7 - Point Cloud Data file format
VERSION 0.7
FIELDS x y z rgb
SIZE 4 4 4 4
TYPE F F F F
COUNT 1 1 1 1
WIDTH 356
HEIGHT 1
VIEWPOINT 0 0 0 1 0 0 0
POINTS 356
DATA ascii
1267.9 271.41501 -461.479 1.8403113e-38
1257.45 246.81799 -457.673 1.8403113e-38
1261.8101 258.85001 -459.26199 1.8403113e-38
1253.73 279.164 -456.32101 1.8403113e-38
1244.09 287.83801 -452.811 1.8403113e-38
1209.5601 -377.61899 -440.245 1.8403113e-38
1211.9399 -258.21201 -441.10999 1.8403113e-38
1212.33 -237.048 -441.25 1.8403113e-38
1212.65 -184.593 -441.367 1.8403113e-38
1202.7 -1532.58 -437.746 1.8403113e-38
1200.35 -1501.8199 -436.89099 1.8403113e-38
1181.96 -1449.9399 -430.19901 1.8403113e-38
1181.52 -1193.24 -430.03699 1.8403113e-38
1182.47 -1113.74 -430.383 1.8403113e-38
1186.15 -1098.25 -431.724 1.8403113e-38
1188.98 -1082.09 -432.754 1.8403113e-38
1186.8199 -1061.1899 -431.96701 1.8403113e-38
1188.55 -1044.46 -432.59698 1.8403113e-38
1186.6 -1024.4399 -431.88699 1.8403113e-38
1184.4 -1004.53 -431.08801 1.8403113e-38
1187.64 -989.99298 -432.26401 1.8403113e-38
1187.85 -972.87299 -432.34299 1.8403113e-38
1185.71 -953.89697 -431.564 1.8403113e-38
1187.6899 -938.85101 -432.285 1.8403113e-38
1185.86 -920.69598 -431.617 1.8403113e-38
1188.22 -906.38098 -432.47699 1.8403113e-38
1188.21 -890.24597 -432.47198 1.8403113e-38
1190.25 -876.008 -433.215 1.8403113e-38
1186.88 -857.586 -431.98999 1.8403113e-38
1191.61 -845.83801 -433.70999 1.8403113e-38
1190.9 -829.953 -433.453 1.8403113e-38
1193.08 -816.46802 -434.245 1.8403113e-38
1190.49 -799.56598 -433.30399 1.8403113e-38
1200.11 -791.836 -436.80301 1.8403113e-38
1202.67 -778.95599 -437.73401 1.8403113e-38
1194.91 -758.91302 -434.91 1.8403113e-38
1194.78 -744.52197 -434.866 1.8403113e-38
1192.92 -729.11603 -434.18799 1.8403113e-38
1200.45 -720.15997 -436.92999 1.8403113e-38
1200.71 -706.41803 -437.02301 1.8403113e-38
1197.6 -690.66602 -435.89099 1.8403113e-38
1197.5601 -677.05603 -435.875 1.8403113e-38
1200.63 -665.5 -436.992 1.8403113e-38
1200.3199 -651.96899 -436.88 1.8403113e-38
1199.87 -638.49402 -436.71701 1.8403113e-38
1198.46 -624.60101 -436.203 1.8403113e-38
1196.0699 -610.31299 -435.33401 1.8403113e-38
1200.2 -599.81097 -436.83701 1.8403113e-38
1203.4 -588.82599 -438.00299 1.8403113e-38
1199.78 -574.25702 -436.685 1.8403113e-38
1200.23 -561.992 -436.84601 1.8403113e-38
1198.01 -548.47101 -436.039 1.8403113e-38
1196.5 -535.45697 -435.491 1.8403113e-38
1200 -525.00201 -436.763 1.8403113e-38
1205.12 -515.33502 -438.62799 1.8403113e-38
1200.6899 -501.228 -437.01401 1.8403113e-38
1198.7 -488.414 -436.29099 1.8403113e-38
1200.9301 -477.58899 -437.10199 1.8403113e-38
1203.9301 -467.134 -438.19501 1.8403113e-38
1200.73 -454.095 -437.02899 1.8403113e-38
1202.66 -443.30099 -437.73099 1.8403113e-38
1204.49 -432.50601 -438.39801 1.8403113e-38
1207.11 -422.05301 -439.35199 1.8403113e-38
1205.22 -409.91501 -438.66199 1.8403113e-38
1201.4301 -397.19299 -437.284 1.8403113e-38
1203.75 -386.79401 -438.13 1.8403113e-38
1202.76 -364.155 -437.76901 1.8403113e-38
1201.21 -352.60001 -437.20499 1.8403113e-38
1202.26 -341.95401 -437.58701 1.8403113e-38
1205.02 -331.867 -438.59201 1.8403113e-38
1205.89 -321.22101 -438.909 1.8403113e-38
1207.58 -310.84201 -439.522 1.8403113e-38
1203.72 -298.95401 -438.117 1.8403113e-38
1203.39 -288.129 -437.99799 1.8403113e-38
1203.89 -277.56699 -438.17801 1.8403113e-38
1203.37 -266.79199 -437.992 1.8403113e-38
1207.58 -246.58299 -439.52399 1.8403113e-38
1205.9301 -225.155 -438.92099 1.8403113e-38
1208.66 -215.22 -439.914 1.8403113e-38
1202.98 -203.689 -437.84698 1.8403113e-38
1208.3101 -194.261 -439.789 1.8403113e-38
1205.75 -173.08501 -438.85901 1.8403113e-38
1204.34 -162.554 -438.34399 1.8403113e-38
1207.5 -152.716 -439.492 1.8403113e-38
1206.84 -142.343 -439.254 1.8403113e-38
1199.5601 -131.203 -436.60599 1.8403113e-38
1204.34 -121.567 -438.34299 1.8403113e-38
1199.6801 -110.894 -436.64801 1.8403113e-38
1203.36 -101.101 -437.98599 1.8403113e-38
1205.08 -91.091003 -438.61401 1.8403113e-38
1202.97 -80.778 -437.84698 1.8403113e-38
1198.91 -70.389 -436.366 1.8403113e-38
1196.63 -60.186298 -435.53699 1.8403113e-38
1204.59 -50.511299 -438.435 1.8403113e-38
1205.9 -40.448502 -438.91199 1.8403113e-38
1203.37 -30.260599 -437.992 1.8403113e-38
1197 -20.052799 -435.67401 1.8403113e-38
1199.95 -10.053 -436.745 1.8403113e-38
1205.63 0 -438.81201 1.8403113e-38
1201.83 10.0704 -437.42899 1.8403113e-38
1204.52 20.1924 -438.409 1.8403113e-38
1198.6801 30.1297 -436.28299 1.8403113e-38
1204.96 40.413601 -438.57001 1.8403113e-38
1198.96 50.2495 -436.38501 1.8403113e-38
1197.5699 60.238701 -435.87799 1.8403113e-38
1204.53 70.755302 -438.414 1.8403113e-38
1203.91 80.847801 -438.18799 1.8403113e-38
1202.27 90.855598 -437.591 1.8403113e-38
1201.48 100.926 -437.30499 1.8403113e-38
1205.29 111.469 -438.69101 1.8403113e-38
1200.6 121.148 -436.98199 1.8403113e-38
1201.4301 131.429 -437.285 1.8403113e-38
1200.3101 141.49001 -436.87799 1.8403113e-38
1202.84 152.063 -437.797 1.8403113e-38
1199.6899 161.858 -436.651 1.8403113e-38
1206.6801 173.233 -439.19699 1.8403113e-38
1198.73 182.246 -436.29999 1.8403113e-38
1204.6 193.601 -438.44 1.8403113e-38
1202.98 203.689 -437.84698 1.8403113e-38
1203.11 214.127 -437.897 1.8403113e-38
1190.25 221.911 -433.21399 1.8403113e-38
1187.89 284.01599 -432.35699 1.8403113e-38
1183.7 293.44501 -430.832 1.8403113e-38
1196.6899 307.73599 -435.55801 1.8403113e-38
1200.46 319.617 -436.931 1.8403113e-38
1194.15 339.39801 -434.63501 1.8403113e-38
1203.22 331.31601 -437.935 1.8403113e-38
1199.42 352.01599 -436.55099 1.8403113e-38
1195.59 361.74899 -435.159 1.8403113e-38
1204.2 375.76501 -438.293 1.8403113e-38
1195.73 383.939 -435.211 1.8403113e-38
1195.21 394.914 -435.01999 1.8403113e-38
1201.67 408.57999 -437.37299 1.8403113e-38
1202.7 420.34299 -437.745 1.8403113e-38
1202.73 431.806 -437.75699 1.8403113e-38
1202.66 443.30099 -437.73099 1.8403113e-38
1205.1 455.92801 -438.62 1.8403113e-38
1205.6801 467.884 -438.82999 1.8403113e-38
1196.59 475.67599 -435.522 1.8403113e-38
1203.03 490.36801 -437.866 1.8403113e-38
1198.1 500.03101 -436.073 1.8403113e-38
1202.54 514.11499 -437.69 1.8403113e-38
1202.5601 526.24597 -437.69699 1.8403113e-38
1202.46 538.41602 -437.66101 1.8403113e-38
1201.52 1846.2 -437.319 1.8403113e-38
1204.51 1887.75 -438.405 1.8403113e-38
1205.4399 1926.91 -438.745 1.8403113e-38
1201.52 1958.48 -437.319 1.8403113e-38
1184.95 1967.61 -431.28699 1.8403113e-38
1154.5 -2731.48 -420.203 1.8403113e-38
1156.13 -2542.0901 -420.798 1.8403113e-38
1155.54 -2481.1899 -420.58099 1.8403113e-38
1156.75 -2426.8701 -421.022 1.8403113e-38
1157.55 -2373.6201 -421.31299 1.8403113e-38
1158.77 -2323.25 -421.75699 1.8403113e-38
1158.42 -2271.25 -421.63 1.8403113e-38
1158.14 -2221.23 -421.52701 1.8403113e-38
1158.8199 -2174.95 -421.776 1.8403113e-38
1155.35 -2121.73 -420.51501 1.8403113e-38
1159.48 -2085.52 -422.01599 1.8403113e-38
1155.47 -2034.46 -420.556 1.8403113e-38
1156.17 -1994.13 -420.81 1.8403113e-38
1160.51 -1884.38 -422.39001 1.8403113e-38
1157.53 -1842.05 -421.306 1.8403113e-38
1161.3 -1812.71 -422.67899 1.8403113e-38
1162.6801 -1780.05 -423.18201 1.8403113e-38
1159.0601 -1739.92 -421.86401 1.8403113e-38
1159.47 -1707.53 -422.013 1.8403113e-38
1161.51 -1678.61 -422.754 1.8403113e-38
1164.72 -1652.27 -423.92401 1.8403113e-38
1164.9301 -1621.88 -423.99799 1.8403113e-38
1166.33 -1594.0699 -424.508 1.8403113e-38
1168.99 -1568.8 -425.478 1.8403113e-38
1171.3199 -1543.6 -426.32599 1.8403113e-38
1165.49 -1507.23 -424.20499 1.8403113e-38
1163.39 -1399.3 -423.44 1.8403113e-38
1171.28 -1384.87 -426.311 1.8403113e-38
1174.8199 -1365 -427.60101 1.8403113e-38
1171.48 -1336.75 -426.384 1.8403113e-38
1172.03 -1313.98 -426.58301 1.8403113e-38
1171.67 -1290.55 -426.45099 1.8403113e-38
1179.1 -1276.97 -429.15601 1.8403113e-38
1176.3199 -1251.46 -428.146 1.8403113e-38
1178.29 -1231.99 -428.86301 1.8403113e-38
1176.8199 -1208.9301 -428.32599 1.8403113e-38
1178.21 -1168.9301 -428.832 1.8403113e-38
1180.51 -1151.1899 -429.66901 1.8403113e-38
1178.61 -1129.25 -428.978 1.8403113e-38
1161.84 1964.39 -422.87399 1.8403113e-38
1142.84 -3683.79 -415.95999 1.8403113e-38
1135.37 -3543.1101 -413.241 1.8403113e-38
1136.13 -3438.1499 -413.517 1.8403113e-38
1142.8 -3358.1799 -415.944 1.8403113e-38
1144.36 -3266.03 -416.51099 1.8403113e-38
1148.46 -3186.3999 -418.005 1.8403113e-38
1151.96 -3108.8301 -419.28101 1.8403113e-38
1150.74 -3021.1101 -418.836 1.8403113e-38
1151.45 -2943.02 -419.095 1.8403113e-38
1152.3101 -2868.8899 -419.40701 1.8403113e-38
1150.66 -2791.25 -418.80499 1.8403113e-38
1153.84 -2662.6201 -419.96399 1.8403113e-38
1152.87 -2595.8201 -419.61099 1.8403113e-38
1152.12 -1946.12 -419.33701 1.8403113e-38
1152.53 -1907.85 -419.48801 1.8403113e-38
1153.9 526.08502 -419.987 1.8403113e-38
1131.66 538.11499 -411.892 1.8403113e-38
1133.0699 550.69 -412.405 1.8403113e-38
1140.1899 566.56598 -414.99399 1.8403113e-38
1128.04 571.81598 -410.57101 1.8403113e-38
1132.39 586.42798 -412.15701 1.8403113e-38
1148.42 1979.26 -417.991 1.8403113e-38
1134.39 1993.16 -412.88501 1.8403113e-38
1131.9399 2118.8101 -411.99399 1.8403113e-38
1115.1899 -3702.78 -405.89401 1.8403113e-38
1119.15 519.90802 -407.336 1.8403113e-38
1123.4399 593.40698 -408.897 1.8403113e-38
1121.1 2008.71 -408.04599 1.8403113e-38
1106.3199 2021.5 -402.66901 1.8403113e-38
1084.03 -3709.01 -394.55399 1.8403113e-38
1052.61 -3713.98 -383.117 1.8403113e-38
1068.83 2030.61 -389.021 1.8403113e-38
1060.79 2058.24 -386.09601 1.8403113e-38
1047.9399 2123.48 -381.41901 1.8403113e-38
1070.17 2125.5901 -389.51099 1.8403113e-38
1018.58 -3708.01 -370.73401 1.8403113e-38
1023.87 2116.5701 -372.65701 1.8403113e-38
1005.33 2122.1699 -365.91 1.8403113e-38
977.23199 -3669.6599 -355.68301 1.8403113e-38
964.625 520.5 -351.095 1.8403113e-38
986.854 523.44598 -359.185 1.8403113e-38
964.883 2124.53 -351.189 1.8403113e-38
986.02002 2125.75 -358.88199 1.8403113e-38
940.08301 515.659 -342.16199 1.8403113e-38
938.521 556.64203 -341.59399 1.8403113e-38
948.633 552.70599 -345.27399 1.8403113e-38
943.474 2122.1499 -343.396 1.8403113e-38
908.26501 515.70599 -330.58099 1.8403113e-38
923.74103 515.55298 -336.21399 1.8403113e-38
917.37598 552.80902 -333.897 1.8403113e-38
852.99902 -3260.3601 -310.466 1.8403113e-38
855.02649 524.45349 -311.20398 1.8403113e-38
824.755 -3260.24 -300.186 1.8403113e-38
837.677 526.758 -304.88901 1.8403113e-38
835.63898 535.14697 -304.14801 1.8403113e-38
839.67798 558.396 -305.61801 1.8403113e-38
843.46399 551.08698 -306.996 1.8403113e-38
798.091 -3726.26 -290.48099 1.8403113e-38
801.83099 -3579.6599 -291.84299 1.8403113e-38
806.93298 -3451.8799 -293.70001 1.8403113e-38
810.80701 -3328.1899 -295.10901 1.8403113e-38
808.633 544.263 -294.31799 1.8403113e-38
810.14697 555.47498 -294.86899 1.8403113e-38
821.22101 574.67102 -298.89999 1.8403113e-38
808.66498 1154.6 -294.32999 1.8403113e-38
784.255 -4480.1499 -285.44501 1.8403113e-38
785.91699 -4250.8901 -286.04999 1.8403113e-38
792.03101 -4071.2 -288.276 1.8403113e-38
795.93597 -3895.6599 -289.69699 1.8403113e-38
784.90698 846.479 -285.68301 1.8403113e-38
774.42798 855.69849 -281.8685 1.8403113e-38
750.96399 -4510.8999 -273.328 1.8403113e-38
743.67651 534.84802 -270.67599 1.8403113e-38
757.24298 531.93201 -275.61401 1.8403113e-38
744.83502 570.21503 -271.09799 1.8403113e-38
757.40503 571.43799 -275.673 1.8403113e-38
767.867 570.56201 -279.48099 1.8403113e-38
714.604 552.40198 -260.09399 1.8403113e-38
715.31201 625.211 -260.35199 1.8403113e-38
721.09198 620.33002 -262.45599 1.8403113e-38
717.48199 649.771 -261.142 1.8403113e-38
720.13 641.34601 -262.10599 1.8403113e-38
721.922 666.10901 -262.758 1.8403113e-38
717.73102 673.14697 -261.233 1.8403113e-38
721.15997 688.935 -262.48099 1.8403113e-38
716.68597 708.21698 -260.85199 1.8403113e-38
723.93201 729.48297 -263.48901 1.8403113e-38
724.69202 756.604 -263.76599 1.8403113e-38
740.45697 833.47803 -269.504 1.8403113e-38
737.64801 844.74799 -268.48199 1.8403113e-38
720.30701 851.34497 -262.17001 1.8403113e-38
733.31799 902.05402 -266.90601 1.8403113e-38
728.08002 910.995 -264.99899 1.8403113e-38
727.05402 926.461 -264.62601 1.8403113e-38
725.82098 941.97601 -264.177 1.8403113e-38
727.53198 962.513 -264.79999 1.8403113e-38
722.72699 973.14502 -263.05099 1.8403113e-38
724.96002 995.50201 -263.86401 1.8403113e-38
713.68701 -4514.6299 -259.76099 1.8403113e-38
694.56799 543.34802 -252.802 1.8403113e-38
701.96198 560.06201 -255.493 1.8403113e-38
702.89001 570.87402 -255.83099 1.8403113e-38
710.479 598.86798 -258.59299 1.8403113e-38
712.948 691.56598 -259.492 1.8403113e-38
700.04797 713.20099 -254.797 1.8403113e-38
710.104 821.914 -258.457 1.8403113e-38
708.27197 849.677 -257.79001 1.8403113e-38
675.78497 -4513.0601 -245.965 1.8403113e-38
685.815 564.013 -249.616 1.8403113e-38
668.36499 1451.04 -243.265 1.8403113e-38
637.72498 -4509.1401 -232.11301 1.8403113e-38
646.11298 1428.1899 -235.166 1.8403113e-38
617.34497 1422.8101 -224.69501 1.8403113e-38
631.68799 1425.58 -229.91499 1.8403113e-38
599.87799 -4505.8501 -218.338 1.8403113e-38
588.289 1414.9 -214.12 1.8403113e-38
602.76599 1418.9399 -219.38901 1.8403113e-38
562.71399 -4508.1699 -204.811 1.8403113e-38
560.242 1408.26 -203.911 1.8403113e-38
573.91498 1410.71 -208.888 1.8403113e-38
522.03601 -4471.3198 -190.006 1.8403113e-38
535.10199 1409.59 -194.761 1.8403113e-38
548.677 1412.3199 -199.702 1.8403113e-38
495.10501 1401.52 -180.203 1.8403113e-38
508.98499 1406.59 -185.255 1.8403113e-38
521.05402 1404.8101 -189.64799 1.8403113e-38
484.37201 -4462.9502 -176.297 1.8403113e-38
469.87299 1399.63 -171.02 1.8403113e-38
483.59698 1404.97 -176.015 1.8403113e-38
442.77399 1388.49 -161.15601 1.8403113e-38
456.73599 1396.0699 -166.23801 1.8403113e-38
418.474 1387.5 -152.312 1.8403113e-38
431.37601 1391.46 -157.008 1.8403113e-38
394.10999 1385.0601 -143.444 1.8403113e-38
407.28799 1391.22 -148.241 1.8403113e-38
359.08899 1387.37 -130.698 1.8403113e-38
370.27701 1384.09 -134.77 1.8403113e-38
381.80499 1382.67 -138.966 1.8403113e-38
333.508 1373.9 -121.387 1.8403113e-38
346.397 1381.6899 -126.078 1.8403113e-38
311.35999 1380.67 -113.326 1.8403113e-38
323.556 1384.74 -117.765 1.8403113e-38
275.26999 1367.73 -100.19 1.8403113e-38
287.09299 1371.17 -104.493 1.8403113e-38
298.853 1373.5 -108.774 1.8403113e-38
263.30301 1362.1899 -95.834602 1.8403113e-38
252.815 1370.45 -92.017097 1.8403113e-38
230.07401 1369.77 -83.739899 1.8403113e-38
240.94099 1364.6899 -87.695503 1.8403113e-38
195.481 1357.46 -71.149101 1.8403113e-38
206.806 1359.6801 -75.271103 1.8403113e-38
218.173 1361.79 -79.408501 1.8403113e-38
173.00101 1353.71 -62.9673 1.8403113e-38
184.149 1354.14 -67.024803 1.8403113e-38
152.94049 -508.09448 -55.665703 1.8403113e-38
144.998 -479.10501 -52.774799 1.8403113e-38
140.379 -465.36099 -51.093899 1.8403113e-38
139.683 1354.79 -50.840599 1.8403113e-38
150.817 1355.54 -54.892799 1.8403113e-38
162.12801 1361.17 -59.0098 1.8403113e-38
117.462 -439 -42.752499 1.8403113e-38
121.012 -432.98401 -44.044899 1.8403113e-38
133.46449 -433.16101 -48.577099 1.8403113e-38
127.842 -421.85501 -46.530701 1.8403113e-38
124.35 -419.936 -45.259499 1.8403113e-38
117.462 1356 -42.752499 1.8403113e-38
128.58099 1355.95 -46.799702 1.8403113e-38
