# .PCD v0.7 - Point Cloud Data file format
VERSION 0.7
FIELDS x y z rgb
SIZE 4 4 4 4
TYPE F F F F
COUNT 1 1 1 1
WIDTH 352
HEIGHT 1
VIEWPOINT 0 0 0 1 0 0 0
POINTS 352
DATA ascii
862.94098 271.57501 -422.134 1.8403113e-38
587.073 639.95599 -420.07401 1.8403113e-38
558.65601 683.30902 -421.022 1.8403113e-38
557.86401 698.63599 -424.078 1.8403113e-38
547.78699 701.94702 -421.82501 1.8403113e-38
530.70398 729.729 -422.76401 1.8403113e-38
521.02399 733.50403 -420.728 1.8403113e-38
515.06702 742.65002 -420.94 1.8403113e-38
512.16199 756.48901 -423.05499 1.8403113e-38
502.845 760.85699 -421.25299 1.8403113e-38
499.13699 773.89899 -422.961 1.8403113e-38
478.63699 799.32898 -422.39099 1.8403113e-38
487.22101 793.58197 -423.681 1.8403113e-38
470.008 805.00201 -421.07101 1.8403113e-38
466.09201 818.81097 -422.883 1.8403113e-38
452.62 837.349 -422.89999 1.8403113e-38
461.04999 830.98602 -424.013 1.8403113e-38
438.267 854.90399 -422.44699 1.8403113e-38
447.76199 850.32001 -424.255 1.8403113e-38
433.133 867.836 -423.71201 1.8403113e-38
427.392 879.91901 -424.617 1.8403113e-38
409.185 891.20599 -421.686 1.8403113e-38
421.06699 891.138 -425.16501 1.8403113e-38
398.01001 917.745 -424.095 1.8403113e-38
407.16299 911.78998 -425.509 1.8403113e-38
388.41101 922.75702 -422.349 1.8403113e-38
382.245 935.53601 -423.27802 1.8403113e-38
375.526 947.42499 -423.854 1.8403113e-38
366.05399 953.13098 -422.293 1.8403113e-38
359.069 964.94501 -422.77499 1.8403113e-38
342.19199 982.25098 -421.526 1.8403113e-38
354.763 983.82898 -425.561 1.8403113e-38
337.496 1001.11 -424.19101 1.8403113e-38
322.72198 1026.27 -425.246 1.8403113e-38
332.84698 1020.88 -427.06799 1.8403113e-38
315.073 1038.8 -425.68701 1.8403113e-38
304.78799 1044.04 -423.78699 1.8403113e-38
298.35199 1061.03 -425.54199 1.8403113e-38
290.203 1073.45 -425.811 1.8403113e-38
284.716 1095 -428.82199 1.8403113e-38
274.20999 1100.9301 -427.005 1.8403113e-38
265.24799 1112.3101 -426.81201 1.8403113e-38
256.64801 1125.49 -427.112 1.8403113e-38
247.60699 1137.7 -427.07401 1.8403113e-38
238.151 1148.9301 -426.702 1.8403113e-38
229.009 1161.97 -426.81201 1.8403113e-38
219.451 1174.02 -426.58801 1.8403113e-38
209.504 1185.0699 -426.035 1.8403113e-38
201.929 1207.36 -428.59 1.8403113e-38
190.35899 1212.65 -426.32401 1.8403113e-38
181.843 1232.98 -428.18201 1.8403113e-38
171.334 1244.75 -427.61801 1.8403113e-38
147.94299 1257.6 -423.5 1.8403113e-38
159.767 1251.7 -425.70801 1.8403113e-38
135.729 1261.5 -420.746 1.8403113e-38
1330.03 -413.16101 -412.534 1.8403113e-38
1314.12 -397.70801 -411.17001 1.8403113e-38
1301.89 -383.12399 -410.70499 1.8403113e-38
1294.33 -369.448 -411.41599 1.8403113e-38
1281.85 -355.26401 -410.79099 1.8403113e-38
1277.88 -342.38599 -412.388 1.8403113e-38
1265.17 -328.573 -411.61401 1.8403113e-38
1256.1801 -315.39999 -411.798 1.8403113e-38
1249 -302.57401 -412.43799 1.8403113e-38
1237.86 -289.53 -411.96399 1.8403113e-38
1226.62 -276.67999 -411.41599 1.8403113e-38
1221.04 -264.44299 -412.40201 1.8403113e-38
1214.4 -252.239 -413.06699 1.8403113e-38
1207.65 -240.149 -413.67801 1.8403113e-38
1191.2 -227.73599 -411.504 1.8403113e-38
1185.22 -215.996 -412.26501 1.8403113e-38
1177.22 -204.30099 -412.42401 1.8403113e-38
1169.13 -192.74001 -412.526 1.8403113e-38
1159.99 -181.30499 -412.29199 1.8403113e-38
1155.5601 -170.02699 -413.40799 1.8403113e-38
1145.28 -158.86301 -412.78201 1.8403113e-38
1136.83 -147.838 -412.664 1.8403113e-38
1128.3 -136.952 -412.492 1.8403113e-38
1115.86 -126.338 -411.112 1.8403113e-38
1112.91 -115.515 -412.56601 1.8403113e-38
1099.36 -105.282 -410.77701 1.8403113e-38
1095.28 -94.688904 -411.85101 1.8403113e-38
1084.4399 -84.623703 -410.82599 1.8403113e-38
1082.11 -74.052399 -412.40799 1.8403113e-38
1070.1801 -64.349503 -410.98199 1.8403113e-38
1063.88 -54.284302 -411.29001 1.8403113e-38
1060.35 -44.008701 -412.457 1.8403113e-38
1050.11 -34.546001 -411.47699 1.8403113e-38
1046.4301 -24.417601 -412.56699 1.8403113e-38
1032.28 -15.7298 -410.271 1.8403113e-38
1023.37 14.4214 -414.121 1.8403113e-38
1005.24 21.839899 -410.383 1.8403113e-38
1009.53 33.016201 -414.04401 1.8403113e-38
997.84998 41.276901 -412.38199 1.8403113e-38
987.362 59.966202 -413.30899 1.8403113e-38
991.71002 50.469101 -412.54901 1.8403113e-38
973.67102 67.3853 -410.875 1.8403113e-38
971.96997 77.329399 -412.509 1.8403113e-38
967.41602 86.613297 -413.16199 1.8403113e-38
954.51001 93.795097 -410.909 1.8403113e-38
951.66901 103.37 -412.12799 1.8403113e-38
942.34302 111.214 -411.07001 1.8403113e-38
935.0965 124.64149 -411.8205 1.8403113e-38
923.17798 136.61301 -410.88501 1.8403113e-38
917.27502 145.09801 -410.97 1.8403113e-38
918.52002 155.793 -413.63101 1.8403113e-38
907.98102 162.728 -412.021 1.8403113e-38
894.84601 178.92 -411.633 1.8403113e-38
903.67902 171.62 -412.664 1.8403113e-38
892.19702 188.32201 -412.87201 1.8403113e-38
883.26501 195.431 -411.771 1.8403113e-38
876.06201 203.084 -411.29599 1.8403113e-38
874.08502 212.696 -412.77701 1.8403113e-38
861.14502 228.349 -412.33099 1.8403113e-38
875.52301 223.713 -415.56299 1.8403113e-38
856.64502 247.429 -415.10199 1.8403113e-38
870.23102 242.647 -418.07001 1.8403113e-38
860.29199 259.64301 -418.79501 1.8403113e-38
832.14001 278.69199 -414.60599 1.8403113e-38
849.23401 276.047 -419.064 1.8403113e-38
826.935 286.85199 -414.827 1.8403113e-38
820.82501 294.54199 -414.67999 1.8403113e-38
808.44202 309.72198 -414.297 1.8403113e-38
813.823 301.73599 -414.16599 1.8403113e-38
804.65997 318.543 -415.078 1.8403113e-38
799.14899 326.439 -415.15201 1.8403113e-38
778.96503 336.94101 -411.47101 1.8403113e-38
787.83099 331.069 -412.81799 1.8403113e-38
775.76001 346.01599 -412.47601 1.8403113e-38
772.46899 355.08301 -413.45401 1.8403113e-38
764.276 361.20599 -412.35901 1.8403113e-38
757.32599 379.19601 -414.17599 1.8403113e-38
762.44 371.19901 -413.96399 1.8403113e-38
747.41302 384.08499 -412.311 1.8403113e-38
748.46899 396.10001 -415.20001 1.8403113e-38
741.591 402.93301 -414.64401 1.8403113e-38
736.99103 411.29199 -415.08499 1.8403113e-38
722.98297 424.638 -413.82999 1.8403113e-38
733.086 420.16101 -415.84 1.8403113e-38
717.43298 432.30899 -413.84399 1.8403113e-38
717.84998 444.422 -416.56601 1.8403113e-38
704.867 458.495 -415.76801 1.8403113e-38
717.37299 456.03299 -418.91699 1.8403113e-38
701.25 467.76599 -416.694 1.8403113e-38
671.07397 479.87399 -410.42099 1.8403113e-38
698.27197 477.61801 -417.93301 1.8403113e-38
686.46399 480.33099 -415.043 1.8403113e-38
608.79999 605.48199 -419.064 1.8403113e-38
594.04303 618.19897 -417.45499 1.8403113e-38
603.659 614.31598 -419.448 1.8403113e-38
592.48297 631.20203 -419.78601 1.8403113e-38
577.323 643.63397 -417.99701 1.8403113e-38
574.17798 655.20203 -419.55399 1.8403113e-38
567.32703 662.39099 -419.082 1.8403113e-38
562.172 671.74298 -419.57401 1.8403113e-38
538.27399 705.90802 -419.87799 1.8403113e-38
532.07397 714.36603 -419.87 1.8403113e-38
487.68799 774.93298 -419.81699 1.8403113e-38
109.458 1257.49 -412.16199 1.8403113e-38
121.795 1254.78 -415.207 1.8403113e-38
1846.66 -1177.86 -400.33899 1.8403113e-38
1831.35 -1149.36 -401.95099 1.8403113e-38
1808.64 -1117.6801 -402.073 1.8403113e-38
1790.88 -1089.03 -403 1.8403113e-38
1779.92 -1064.12 -405.12299 1.8403113e-38
1755.29 -1033.23 -404.51001 1.8403113e-38
1735.6801 -1005.26 -404.74799 1.8403113e-38
1709.46 -974.875 -403.55801 1.8403113e-38
1699.13 -952.03998 -405.42001 1.8403113e-38
1673.17 -922.90601 -404.039 1.8403113e-38
1664.13 -901.40399 -405.99399 1.8403113e-38
1643.9301 -875.685 -405.57501 1.8403113e-38
1627.11 -851.79602 -405.755 1.8403113e-38
1606.36 -826.828 -405.013 1.8403113e-38
1592.6899 -805.00897 -405.67599 1.8403113e-38
1576.95 -782.789 -405.815 1.8403113e-38
1561.9 -761.203 -406.022 1.8403113e-38
1546.62 -739.91101 -406.099 1.8403113e-38
1531.12 -718.91498 -406.047 1.8403113e-38
1516.34 -698.52002 -406.077 1.8403113e-38
1496.6801 -676.93298 -404.92999 1.8403113e-38
1486.14 -658.58801 -405.76801 1.8403113e-38
1472.62 -639.61298 -405.86301 1.8403113e-38
1465.46 -622.79401 -407.36899 1.8403113e-38
1445.9399 -602.70599 -405.93799 1.8403113e-38
1440.33 -586.79602 -407.703 1.8403113e-38
1424.2 -568.29602 -406.92999 1.8403113e-38
1412.61 -551.28497 -407.172 1.8403113e-38
1407.48 -536.10101 -408.922 1.8403113e-38
1398.42 -520.13702 -409.68399 1.8403113e-38
1381.62 -502.64301 -408.5 1.8403113e-38
1368.46 -486.27499 -408.14099 1.8403113e-38
1361.8 -471.52399 -409.349 1.8403113e-38
1346.4399 -455.20999 -408.33301 1.8403113e-38
1338.55 -440.612 -409.147 1.8403113e-38
1324.8101 -425.13501 -408.427 1.8403113e-38
1019.97 -7.0033898 -408.52499 1.8403113e-38
1016.07 2.81885 -409.487 1.8403113e-38
657.20203 480.41 -406.45801 1.8403113e-38
583.52698 564.39099 -402.81699 1.8403113e-38
82.427597 1245.29 -401.59698 1.8403113e-38
95.875702 1251.46 -406.875 1.8403113e-38
2311.8401 -1861.5 -390.41 1.8403113e-38
2269.3899 -1802.51 -390.58801 1.8403113e-38
2231.9199 -1748.24 -391.216 1.8403113e-38
2194.5701 -1695.26 -391.604 1.8403113e-38
2171.49 -1652.75 -393.93799 1.8403113e-38
2135.3501 -1602.72 -394.04901 1.8403113e-38
2106.1201 -1558.14 -395.022 1.8403113e-38
2070.4299 -1510.5 -394.75 1.8403113e-38
2045.14 -1470.23 -395.95801 1.8403113e-38
2017.66 -1429.45 -396.62701 1.8403113e-38
1993.9399 -1391.72 -397.75201 1.8403113e-38
1962.9 -1350.54 -397.46201 1.8403113e-38
1939.11 -1314.3101 -398.241 1.8403113e-38
1916.62 -1279.51 -399.09399 1.8403113e-38
1891.97 -1244.23 -399.41699 1.8403113e-38
1863.4 -1207.6 -398.879 1.8403113e-38
586.63599 527.89001 -395.89899 1.8403113e-38
582.90601 537.09003 -396.77701 1.8403113e-38
578.422 545.60498 -397.28601 1.8403113e-38
69.1147 1238.98 -396.32901 1.8403113e-38
56.942101 1241.22 -393.23001 1.8403113e-38
2694.9099 -2420.53 -383.07999 1.8403113e-38
2639.27 -2338.6399 -384.293 1.8403113e-38
2586.4299 -2260.8899 -385.44199 1.8403113e-38
2537.27 -2187.79 -386.67401 1.8403113e-38
2495.8701 -2122.22 -388.57001 1.8403113e-38
2446.3899 -2052.1699 -389.05399 1.8403113e-38
2396.76 -1983.66 -389.16501 1.8403113e-38
2347.02 -1916.6899 -388.91199 1.8403113e-38
590.81897 458.20401 -382.177 1.8403113e-38
601.46503 456.00201 -384.83401 1.8403113e-38
612.84601 454.27701 -387.81 1.8403113e-38
588.521 467.89001 -383.57901 1.8403113e-38
582.67401 474.384 -383.254 1.8403113e-38
582.90802 486.66299 -385.957 1.8403113e-38
578.255 494.42499 -386.255 1.8403113e-38
579.552 508.11099 -389.573 1.8403113e-38
19.4884 1237.6 -381.44199 1.8403113e-38
31.612 1235.7 -384.59799 1.8403113e-38
43.725101 1233.6899 -387.729 1.8403113e-38
-5.8333502 1226.51 -371.61899 1.8403113e-38
6.6519098 1230.66 -376.17999 1.8403113e-38
-29.8881 1229.53 -365.194 1.8403113e-38
-17.8573 1228.0699 -368.41901 1.8403113e-38
-552.49902 1934.71 -362.85999 1.8403113e-38
-42.683998 1214.3199 -358.16901 1.8403113e-38
-567.51801 1919.1801 -355.112 1.8403113e-38
-585.83698 1918.96 -349.67999 1.8403113e-38
-605.31702 1923.4 -344.90399 1.8403113e-38
-633.21899 1961.3 -344.83499 1.8403113e-38
-636.43201 1900.03 -330.742 1.8403113e-38
-665.06702 1938.46 -330.569 1.8403113e-38
-707.48499 2024.4 -336.53799 1.8403113e-38
-748.84802 2030.86 -325.76401 1.8403113e-38
-701.90503 1935.13 -319.026 1.8403113e-38
-741.01202 1938.73 -308.29999 1.8403113e-38
-762.56403 1946.41 -303.61301 1.8403113e-38
-789.716 1970.92 -300.888 1.8403113e-38
-825.68701 2020.61 -300.97501 1.8403113e-38
-63.838001 966.95801 -298.87299 1.8403113e-38
-846.61298 2022.78 -295.289 1.8403113e-38
-889.67499 2029.3199 -284.03299 1.8403113e-38
-868.26099 2026.63 -289.75 1.8403113e-38
-929.59998 2025.6899 -271.51501 1.8403113e-38
-907.75299 2022.46 -277.245 1.8403113e-38
-950.82599 2026.84 -265.521 1.8403113e-38
-991.21899 2022.96 -252.814 1.8403113e-38
-972.84302 2029.63 -259.647 1.8403113e-38
-88.194504 727.55103 -240.343 1.8403113e-38
-80.134697 739.57703 -245.293 1.8403113e-38
-1012.57 2023.49 -246.649 1.8403113e-38
-111.246 721.289 -232.222 1.8403113e-38
-103.608 722.79498 -234.791 1.8403113e-38
-95.9039 727.16302 -237.993 1.8403113e-38
-262.73001 928.06702 -232.05499 1.8403113e-38
-253.658 930.80603 -235.31 1.8403113e-38
-1011.84 1971.49 -235.707 1.8403113e-38
-133.491 701.66699 -221.472 1.8403113e-38
-126.038 701.427 -223.612 1.8403113e-38
-118.667 706.992 -226.97301 1.8403113e-38
-279.95599 917.47601 -224.718 1.8403113e-38
-290.983 927.15399 -223.55299 1.8403113e-38
-271.01801 920.37201 -227.967 1.8403113e-38
-1013.07 1926.03 -225.593 1.8403113e-38
1364.04 -1370.79 -217.054 1.8403113e-38
-162.95599 697.065 -211.82201 1.8403113e-38
-155.612 698.07001 -214.19701 1.8403113e-38
-144.422 696.50696 -217.1515 1.8403113e-38
-310.10599 927.74103 -218.05701 1.8403113e-38
-299.41901 921.17102 -219.789 1.8403113e-38
-320.15399 930.32898 -215.658 1.8403113e-38
-338.13599 971.578 -219.222 1.8403113e-38
-1029.3199 1916.22 -218.709 1.8403113e-38
-1086.58 1997.12 -219.23199 1.8403113e-38
1312.77 -1368.54 -202.46201 1.8403113e-38
1327.63 -1360.9301 -208.464 1.8403113e-38
-196.39149 698.0835 -202.21051 1.8403113e-38
-185.30499 698.55103 -205.57001 1.8403113e-38
-173.8075 693.95752 -207.965 1.8403113e-38
-209.98801 718.99298 -202.7 1.8403113e-38
-222.33099 756.60101 -207.14101 1.8403113e-38
1280.6801 -1381.24 -190.302 1.8403113e-38
1289.55 -1368.8199 -195.577 1.8403113e-38
1330.65 -1467.37 -186.51199 1.8403113e-38
1274.67 -1396.23 -185.31799 1.8403113e-38
1310.65 -1470.67 -179.924 1.8403113e-38
1283.39 -1466.91 -172.71899 1.8403113e-38
1247.27 -1475.5601 -160.241 1.8403113e-38
1270.75 -1476.5 -166.94299 1.8403113e-38
1224.6 -1475.01 -153.69501 1.8403113e-38
1188.64 -1482.23 -141.57401 1.8403113e-38
1202.02 -1474.15 -147.241 1.8403113e-38
1160.62 -1475.11 -134.86099 1.8403113e-38
1218.66 -1604.14 -124.24 1.8403113e-38
1222.72 -1585.01 -129.53799 1.8403113e-38
1150.71 -1486.4 -129.52699 1.8403113e-38
-633.10797 946.091 -127.033 1.8403113e-38
1166.6801 -1570.76 -116.123 1.8403113e-38
1129.9 -1576 -104.184 1.8403113e-38
1124.65 -1547.03 -108.856 1.8403113e-38
-512.64252 664.46448 -102.0205 1.8403113e-38
-495.216 672.24701 -108.814 1.8403113e-38
1097.14 -1584.9301 -92.638 1.8403113e-38
1110.58 -1577.16 -98.256897 1.8403113e-38
-530.71399 641.41602 -91.761902 1.8403113e-38
-525.33698 647.41302 -94.6297 1.8403113e-38
-519.43402 652.47803 -97.451797 1.8403113e-38
1026.9399 -1547.53 -80.023003 1.8403113e-38
1039.42 -1539.63 -85.386902 1.8403113e-38
-555.53003 631.87305 -82.418503 1.8403113e-38
-545.54303 637.19702 -86.496902 1.8403113e-38
-538.841 640.664 -89.211403 1.8403113e-38
1033.52 -1602.87 -70.083603 1.8403113e-38
1026.96 -1570.85 -75.0261 1.8403113e-38
-585.41504 623.01501 -71.73175 1.8403113e-38
-575.05603 627.88397 -75.821999 1.8403113e-38
-566.448 628.15802 -78.411598 1.8403113e-38
2024.97 -2990.3301 -63.8591 1.8403113e-38
1013.76 -1601.98 -64.464699 1.8403113e-38
-601.12903 612.33899 -64.821297 1.8403113e-38
-616.76898 622.58398 -62.421299 1.8403113e-38
-597.30701 620.55902 -67.708702 1.8403113e-38
-606.10602 572.25354 -54.756699 1.8403113e-38
-625.46503 580.88599 -50.917702 1.8403113e-38
-606.80402 593.34497 -59.077301 1.8403113e-38
941.46997 -1604.12 -42.752499 1.8403113e-38
962.14203 -1607.52 -48.101002 1.8403113e-38
-634.927 555.797 -42.752499 1.8403113e-38
-627.21698 557.66803 -45.420799 1.8403113e-38
-616.62598 555.36902 -48.0411 1.8403113e-38
