# .PCD v0.7 - Point Cloud Data file format
VERSION 0.7
FIELDS x y z rgb
SIZE 4 4 4 4
TYPE F F F F
COUNT 1 1 1 1
WIDTH 326
HEIGHT 1
VIEWPOINT 0 0 0 1 0 0 0
POINTS 326
DATA ascii
597.64099 636.48297 -420.409 1.8403113e-38
559.96698 689.164 -421.26199 1.8403113e-38
546.26801 703.89801 -420.58899 1.8403113e-38
537.30005 722.31598 -422.09851 1.8403113e-38
526.31598 738.37201 -422.50201 1.8403113e-38
524.48798 742.091 -422.802 1.8403113e-38
510.4805 754.09705 -421.4335 1.8403113e-38
497.82401 768.28497 -420.94 1.8403113e-38
499.41699 777.53998 -423.45599 1.8403113e-38
486.3345 791.61401 -422.814 1.8403113e-38
472.98001 805.534 -422.06 1.8403113e-38
474.203 814.89001 -424.492 1.8403113e-38
458.79102 825.789 -422.47198 1.8403113e-38
442.76401 835.62097 -420.039 1.8403113e-38
443.18399 844.216 -422.07101 1.8403113e-38
431.9115 863.50403 -423.10901 1.8403113e-38
418.5 879.31403 -422.758 1.8403113e-38
418.54901 887.97803 -424.698 1.8403113e-38
400.30899 898.97101 -421.88501 1.8403113e-38
406.95001 904.03998 -424.92599 1.8403113e-38
388.52802 924.42102 -424.147 1.8403113e-38
391.58301 921.784 -424.44101 1.8403113e-38
375.91901 944.58051 -424.99402 1.8403113e-38
357.76099 952.28998 -421.47501 1.8403113e-38
362.85999 975.15997 -428.02802 1.8403113e-38
344.93649 984.45599 -424.9285 1.8403113e-38
328.866 998.85498 -423.49799 1.8403113e-38
327.492 1006.72 -424.85001 1.8403113e-38
313.465 1021.94 -424.19101 1.8403113e-38
312.849 1032.52 -426.366 1.8403113e-38
298.03 1046.7 -425.246 1.8403113e-38
294.80801 1050.02 -425.05399 1.8403113e-38
278.01001 1072.76 -425.26999 1.8403113e-38
281.61499 1070.4 -425.784 1.8403113e-38
265.34 1096.7 -426.93799 1.8403113e-38
262.69901 1102.71 -427.513 1.8403113e-38
247.05299 1118.2 -426.448 1.8403113e-38
243.771 1122.33 -426.41901 1.8403113e-38
227.47 1136.6801 -424.91199 1.8403113e-38
225.709 1147.3 -426.76501 1.8403113e-38
210.455 1168.02 -426.974 1.8403113e-38
208.007 1176.76 -428.211 1.8403113e-38
190.879 1191.66 -426.58801 1.8403113e-38
188.42799 1201.33 -428.02899 1.8403113e-38
171.17999 1217.9 -426.74301 1.8403113e-38
169.783 1234.1801 -429.95801 1.8403113e-38
151.214 1246.75 -427.40201 1.8403113e-38
123.044 1258.22 -421.832 1.8403113e-38
128.39301 1262.96 -424.42801 1.8403113e-38
148.968 1260.1801 -429.73999 1.8403113e-38
1277.74 -290.63599 -410.332 1.8403113e-38
1285.28 -295.77301 -411.36401 1.8403113e-38
1249.65 -244.49699 -412.492 1.8403113e-38
1224.4299 -217.3725 -411.254 1.8403113e-38
1207.5601 -195.57201 -411.23599 1.8403113e-38
1193.15 -172.263 -412.26501 1.8403113e-38
1171.99 -147.4415 -411.685 1.8403113e-38
1151.73 -127.365 -410.30801 1.8403113e-38
1136.27 -105.702 -410.668 1.8403113e-38
1119.53 -84.591698 -410.535 1.8403113e-38
1099.09 -60.390499 -410.02301 1.8403113e-38
1108.2 -63.5616 -411.94299 1.8403113e-38
1068.74 -20.5044 -410.14301 1.8403113e-38
1027.11 33.0779 -410.05499 1.8403113e-38
1013.6 53.453598 -410.69098 1.8403113e-38
986.164 87.505997 -410.354 1.8403113e-38
969.45398 107.973 -410.08701 1.8403113e-38
978.77002 106.548 -412.45499 1.8403113e-38
959.15601 122.274 -410.298 1.8403113e-38
944.62299 142.636 -410.63599 1.8403113e-38
953.94897 141.582 -413.08899 1.8403113e-38
934.83099 156.681 -410.936 1.8403113e-38
918.828 176.01199 -410.621 1.8403113e-38
920.05499 172.69099 -410.23599 1.8403113e-38
913.11603 191.09 -412.32599 1.8403113e-38
897.66748 208.24249 -411.68649 1.8403113e-38
889.89099 228.06799 -413.85199 1.8403113e-38
895.67499 226.537 -415.17899 1.8403113e-38
884.06348 244.91 -415.91602 1.8403113e-38
875.06 262.358 -417.20001 1.8403113e-38
858.57202 278.29599 -415.991 1.8403113e-38
861.82202 275.92599 -416.401 1.8403113e-38
832.90002 287.55099 -410.64999 1.8403113e-38
840.41302 287.315 -412.76199 1.8403113e-38
825.77197 305.35101 -412.552 1.8403113e-38
833.28302 305.242 -414.69199 1.8403113e-38
817.48999 318.73599 -413.14001 1.8403113e-38
814.164 320.88 -412.65799 1.8403113e-38
799.85498 334.811 -411.63101 1.8403113e-38
808.987 335.89499 -414.504 1.8403113e-38
787.823 349.815 -411.49799 1.8403113e-38
794.46802 349.673 -413.38199 1.8403113e-38
778.48499 364.32999 -412.034 1.8403113e-38
770.53601 379.69 -413.15701 1.8403113e-38
769.49402 383.069 -413.608 1.8403113e-38
756.11499 395.00049 -412.40399 1.8403113e-38
747.10596 411.737 -413.52802 1.8403113e-38
733.39899 423.19299 -412.12399 1.8403113e-38
738.34601 430.83499 -415.24899 1.8403113e-38
724.40302 442.08701 -413.73151 1.8403113e-38
710.349 453.06 -412.12 1.8403113e-38
720.25299 464.87399 -417.60101 1.8403113e-38
702.58447 473.10101 -414.33698 1.8403113e-38
696.54999 492.6745 -416.94849 1.8403113e-38
604.75897 586.98999 -411.45901 1.8403113e-38
602.953 590.065 -411.62299 1.8403113e-38
607.53003 618.27502 -419.21201 1.8403113e-38
604.98297 620.67798 -419.01199 1.8403113e-38
593.80298 637.43597 -419.51501 1.8403113e-38
578.85602 644.53003 -416.784 1.8403113e-38
579.86298 651.17999 -418.55301 1.8403113e-38
568.50952 665.38953 -418.43903 1.8403113e-38
556.328 678.71997 -417.89099 1.8403113e-38
545.09003 696.38898 -418.57999 1.8403113e-38
96.785301 1251.9301 -412.867 1.8403113e-38
101.467 1252.95 -414.44199 1.8403113e-38
1857.55 -1085.22 -400.80899 1.8403113e-38
1814.5601 -1025.6899 -401.65302 1.8403113e-38
1799.79 -1012.05 -400.427 1.8403113e-38
1775.65 -970.19 -402.77499 1.8403113e-38
1754.27 -954.25098 -400.15601 1.8403113e-38
1738.23 -917.35498 -403.737 1.8403113e-38
1698.75 -865.63202 -403.85501 1.8403113e-38
1676.78 -850.73999 -400.83301 1.8403113e-38
1661.83 -816.81403 -404.065 1.8403113e-38
1639.58 -802.44598 -400.84698 1.8403113e-38
1623.86 -769.42603 -403.65701 1.8403113e-38
1607.83 -757.85999 -401.608 1.8403113e-38
1593.26 -726.29401 -404.42499 1.8403113e-38
1577.02 -715.125 -402.22699 1.8403113e-38
1564.58 -685.23401 -405.285 1.8403113e-38
1541.59 -672.41199 -401.51099 1.8403113e-38
1523.8101 -641.93799 -403.16199 1.8403113e-38
1516.55 -634.35303 -402.754 1.8403113e-38
1501.9301 -605.67401 -404.91699 1.8403113e-38
1482.29 -594.92603 -401.64301 1.8403113e-38
1478.41 -570.01398 -406.06299 1.8403113e-38
1456.6899 -559.21301 -402.20599 1.8403113e-38
1450.41 -534.336 -405.92599 1.8403113e-38
1435.16 -525.59998 -403.47 1.8403113e-38
1430.29 -501.62 -407.39899 1.8403113e-38
1412.04 -492.59601 -404.14401 1.8403113e-38
1389.26 -460.64999 -404.681 1.8403113e-38
1405.76 -468.88199 -407.60501 1.8403113e-38
1368.77 -430.07901 -405.57001 1.8403113e-38
1383.48 -437.59 -408.14099 1.8403113e-38
1352.52 -401.06201 -407.336 1.8403113e-38
1360.65 -407.12 -408.33301 1.8403113e-38
1326.16 -371.21799 -406.37399 1.8403113e-38
1334.39 -377.04599 -407.452 1.8403113e-38
1305.04 -343.077 -406.54401 1.8403113e-38
1320.1 -349.59299 -409.43301 1.8403113e-38
1300.52 -322.09799 -409.90302 1.8403113e-38
1285.37 -315.91101 -406.91199 1.8403113e-38
1255.6899 -266.70599 -409.2955 1.8403113e-38
1235.21 -239.332 -409.479 1.8403113e-38
1195.87 -191.116 -408.85901 1.8403113e-38
1175.64 -168.013 -408.16299 1.8403113e-38
1147.55 -123.469 -409.97 1.8403113e-38
1126.29 -102.187 -408.573 1.8403113e-38
1109.51 -81.2967 -408.379 1.8403113e-38
1077.88 -40.838799 -408.258 1.8403113e-38
1081.3199 -44.3484 -408.46799 1.8403113e-38
1067.49 -24.485701 -408.89801 1.8403113e-38
1053.015 -3.181505 -409.46249 1.8403113e-38
1029.74 16.345699 -407.09299 1.8403113e-38
1039.91 14.1354 -409.53299 1.8403113e-38
1022.54 36.062099 -409.40302 1.8403113e-38
996.96802 69.097603 -409.37601 1.8403113e-38
992.33002 71.857903 -408.65201 1.8403113e-38
978.71301 89.527603 -408.65601 1.8403113e-38
954.41803 124.723 -409.47699 1.8403113e-38
925.513 157.53 -408.439 1.8403113e-38
903.80402 191.582 -409.75201 1.8403113e-38
650.03198 480.327 -400.797 1.8403113e-38
664.33698 488.14099 -406.65701 1.8403113e-38
594.36749 551.57153 -400.59149 1.8403113e-38
71.3321 1248.98 -404.875 1.8403113e-38
76.682701 1255.85 -407.94501 1.8403113e-38
2234.6201 -1620.04 -390.60101 1.8403113e-38
2173.76 -1529.73 -393.133 1.8403113e-38
2103.79 -1437.88 -393.38599 1.8403113e-38
2072.1399 -1410.79 -390.28699 1.8403113e-38
2047.95 -1357.92 -395.06699 1.8403113e-38
2018.35 -1333.04 -392.06799 1.8403113e-38
1999.76 -1285.3199 -397.315 1.8403113e-38
1967.9301 -1260.22 -393.72101 1.8403113e-38
1952.48 -1216.02 -399.09399 1.8403113e-38
1917.52 -1190.3101 -394.73499 1.8403113e-38
1890.29 -1142.04 -397.61499 1.8403113e-38
1869.01 -1124.12 -395.466 1.8403113e-38
1826.11 -1063.2 -396.642 1.8403113e-38
1708.36 -898.58197 -399.29901 1.8403113e-38
585.91998 515.10101 -390.04999 1.8403113e-38
598.39301 531.98297 -397.397 1.8403113e-38
45.794899 1242.66 -396.10901 1.8403113e-38
51.090401 1250.6 -399.401 1.8403113e-38
2695.78 -2250.26 -383.41901 1.8403113e-38
2584.0901 -2098.21 -385.02899 1.8403113e-38
2533.03 -2049.3701 -381.168 1.8403113e-38
2490.3101 -1965.83 -387.42599 1.8403113e-38
2429.24 -1912.01 -381.789 1.8403113e-38
2388.0801 -1833.8 -387.31299 1.8403113e-38
2342.4299 -1792.46 -383.34399 1.8403113e-38
2303.1699 -1719.21 -388.31201 1.8403113e-38
2257.49 -1679.53 -383.96799 1.8403113e-38
2197.4199 -1587.1801 -387.18301 1.8403113e-38
2127.3899 -1492.67 -388.009 1.8403113e-38
587.94702 468.64999 -380.30899 1.8403113e-38
606.47198 466.147 -385.091 1.8403113e-38
612.06799 466.875 -386.866 1.8403113e-38
592.09302 476.69299 -383.29099 1.8403113e-38
590.638 495.00601 -386.94299 1.8403113e-38
593.237 501.879 -389.21899 1.8403113e-38
-3.83757 1235.35 -380.17899 1.8403113e-38
0.43304899 1233.8 -381.06699 1.8403113e-38
22.922951 1237.4551 -388.36102 1.8403113e-38
-535.58301 1939.9 -383.54099 1.8403113e-38
-573.79602 1975.65 -380.47501 1.8403113e-38
2631.4399 -2189.45 -378.39301 1.8403113e-38
-26.23955 1229.295 -372.37799 1.8403113e-38
-580.53802 1975.49 -378.496 1.8403113e-38
-615.73901 1993.1801 -372.28299 1.8403113e-38
-618.56897 1976.55 -367.76999 1.8403113e-38
-647.21802 1966.77 -357.33899 1.8403113e-38
-660.45398 1991.27 -358.97101 1.8403113e-38
-691.19702 1963.1899 -343.86801 1.8403113e-38
-735.39001 2006.59 -340.77899 1.8403113e-38
-749.32098 2029.66 -341.89301 1.8403113e-38
-671.297 1915.96 -339.10699 1.8403113e-38
-773.96802 2003.86 -329.05399 1.8403113e-38
-786.50897 2021.02 -329.255 1.8403113e-38
-824.71198 2037.1801 -321.83499 1.8403113e-38
-830.74902 2033.37 -319.25 1.8403113e-38
-870.57599 2030.78 -307.19501 1.8403113e-38
-864.586 2034.7 -309.793 1.8403113e-38
-913.56598 2035.8199 -295.92599 1.8403113e-38
-904.51099 2031.47 -297.56799 1.8403113e-38
-953.617 2031.67 -283.45901 1.8403113e-38
-946.98401 2033.97 -285.884 1.8403113e-38
-62.069401 849.10602 -277.54001 1.8403113e-38
-987.07898 2029.1801 -273.263 1.8403113e-38
-996.328 2033.1899 -271.48901 1.8403113e-38
-378.569 1205.6899 -265.58801 1.8403113e-38
-68.691498 745.23199 -252.54201 1.8403113e-38
-999.51501 1958.5601 -253.98 1.8403113e-38
-98.501549 734.39294 -241.541 1.8403113e-38
-83.045349 737.69702 -246.7305 1.8403113e-38
-250.66701 936.38202 -242.586 1.8403113e-38
-247.827 940.55402 -244.332 1.8403113e-38
-998.05499 1937.76 -249.778 1.8403113e-38
-1073.83 2014.59 -245.01601 1.8403113e-38
-114.905 715.23499 -232.55499 1.8403113e-38
-112.345 724.88599 -235.438 1.8403113e-38
-266.61301 917.15302 -233.716 1.8403113e-38
-264.79401 927.216 -236.47701 1.8403113e-38
-1030.83 1935.36 -239.799 1.8403113e-38
1455.27 -1362.76 -223.17799 1.8403113e-38
1465.8 -1363.47 -226.054 1.8403113e-38
-142.909 702.27197 -221.603 1.8403113e-38
-126.756 701.00403 -225.976 1.8403113e-38
-129.797 711.82703 -227.506 1.8403113e-38
-282.13699 918.44397 -229.52901 1.8403113e-38
-304.67499 929.51001 -225.49301 1.8403113e-38
-286.11401 921.94299 -229.16 1.8403113e-38
-1077.09 1928.8101 -225.011 1.8403113e-38
-1080.04 1951.42 -229.186 1.8403113e-38
-172.72949 705.41895 -213.70801 1.8403113e-38
-157.9115 705.68896 -218.03851 1.8403113e-38
-190.83501 723.87598 -212.593 1.8403113e-38
-205.737 732.88452 -210.3 1.8403113e-38
1400.96 -1360.89 -207.942 1.8403113e-38
1400.5 -1353.21 -209.51601 1.8403113e-38
-186.242 705.435 -209.817 1.8403113e-38
1363.98 -1371.45 -194.933 1.8403113e-38
1366.6801 -1366.36 -196.84399 1.8403113e-38
1390.97 -1471.1899 -180.54201 1.8403113e-38
1402.74 -1445.9399 -189.547 1.8403113e-38
1365.4399 -1406.46 -187.57401 1.8403113e-38
1377.47 -1467.1 -177.56 1.8403113e-38
1331.99 -1469.51 -163.91901 1.8403113e-38
1340.2 -1469.2 -166.353 1.8403113e-38
1295.6801 -1471.3 -153.056 1.8403113e-38
1279.55 -1463.84 -150.063 1.8403113e-38
1293.62 -1566.79 -131.23399 1.8403113e-38
1249.29 -1470.13 -139.94701 1.8403113e-38
1236.2 -1465.11 -137.28799 1.8403113e-38
1272.73 -1583.5601 -121.488 1.8403113e-38
1220.9 -1485.42 -128.364 1.8403113e-38
1340.99 -1713.62 -112.249 1.8403113e-38
1276.71 -1635.46 -111.098 1.8403113e-38
1211.22 -1527.76 -116.161 1.8403113e-38
-535.57501 734.10602 -115.51 1.8403113e-38
-535.93298 741.60999 -117.075 1.8403113e-38
-524.61603 676.47601 -105.859 1.8403113e-38
-536.508 706.16699 -109.031 1.8403113e-38
1113.36 -1511.78 -91.510902 1.8403113e-38
1118.66 -1509.64 -93.513603 1.8403113e-38
-541.13397 642.49597 -93.544296 1.8403113e-38
-538.73102 643.75403 -94.5168 1.8403113e-38
-526.05347 649.1095 -99.360901 1.8403113e-38
2669.22 -3571.3999 -82.092201 1.8403113e-38
2366.28 -3179.71 -81.849899 1.8403113e-38
1095.76 -1536.98 -80.837303 1.8403113e-38
1096.51 -1529.64 -82.684402 1.8403113e-38
-571.617 634.85498 -83.060898 1.8403113e-38
-569.242 636.21301 -84.046898 1.8403113e-38
-550.53998 634.06097 -88.958702 1.8403113e-38
-557.38098 640.56201 -88.432198 1.8403113e-38
1089.83 -1576.46 -70.352097 1.8403113e-38
1070.78 -1545.41 -71.763 1.8403113e-38
-601.61255 627.979 -72.887299 1.8403113e-38
-584.71503 627.17401 -77.5783 1.8403113e-38
-584.45697 631.98199 -78.721298 1.8403113e-38
-628.20599 610.11603 -61.252102 1.8403113e-38
-637.76703 628.992 -62.692699 1.8403113e-38
-617.87048 624.758 -67.485657 1.8403113e-38
2082.1899 -2939.8201 -53.300301 1.8403113e-38
1023.58 -1581.63 -50.108398 1.8403113e-38
-652.99298 618.51001 -55.974201 1.8403113e-38
-658.77197 631.55603 -57.208698 1.8403113e-38
-787.55298 780.41602 -53.1828 1.8403113e-38
-573.901 467.03601 -45.0984 1.8403113e-38
-560.08197 466.10501 -48.874001 1.8403113e-38
-581.20801 472.78699 -44.270802 1.8403113e-38
2021.5601 -2938.6899 -36.076 1.8403113e-38
