# .PCD v0.7 - Point Cloud Data file format
VERSION 0.7
FIELDS x y z rgb
SIZE 4 4 4 4
TYPE F F F F
COUNT 1 1 1 1
WIDTH 323
HEIGHT 1
VIEWPOINT 0 0 0 1 0 0 0
POINTS 323
DATA ascii
1508.8101 -153.79601 -442.375 1.8403113e-38
1510.21 -146.80099 -444.40799 1.8403113e-38
1845.8199 -604.021 -430.46399 1.8403113e-38
1774.98 -518.00598 -430.944 1.8403113e-38
1704.67 -438.14301 -430.12701 1.8403113e-38
1675.55 -401.58701 -430.60699 1.8403113e-38
1645.77 -366.09799 -430.651 1.8403113e-38
1616.3 -331.84698 -430.492 1.8403113e-38
1609.71 -323.09299 -430.711 1.8403113e-38
1585.27 -290.98599 -431.44901 1.8403113e-38
1590.08 -299.22101 -430.853 1.8403113e-38
1567.13 -268.03101 -431.789 1.8403113e-38
1559.3199 -259.634 -431.586 1.8403113e-38
1540.75 -237.336 -431.65601 1.8403113e-38
1513.86 -207.57001 -431.16 1.8403113e-38
1507.75 -199.875 -431.26501 1.8403113e-38
1495.16 -179.403 -432.56799 1.8403113e-38
1505.35 -173.093 -436.884 1.8403113e-38
1457.34 -125.051 -434.80301 1.8403113e-38
1445.14 -117.748 -433.12399 1.8403113e-38
1422.47 -95.138947 -432.12299 1.8403113e-38
1404.3 -73.205399 -432.21701 1.8403113e-38
1405.4301 -66.593102 -434.08301 1.8403113e-38
1376.8 -42.137501 -431.858 1.8403113e-38
1385.39 -48.528702 -432.746 1.8403113e-38
1358.4 -24.6998 -430.83099 1.8403113e-38
1359.36 -18.252501 -432.61099 1.8403113e-38
1342.59 -1.21902 -431.94501 1.8403113e-38
1331 4.5300498 -430.06799 1.8403113e-38
1323.4751 24.701099 -432.7085 1.8403113e-38
1303.23 43.6908 -431.53299 1.8403113e-38
1280.37 71.0355 -431.59201 1.8403113e-38
1259.37 91.7286 -430.60699 1.8403113e-38
1247.0699 107.057 -430.78299 1.8403113e-38
1208.88 152.371 -430.79199 1.8403113e-38
1193.36 171.957 -431.073 1.8403113e-38
1185.75 187.08099 -432.504 1.8403113e-38
1183.16 192.31 -433.01099 1.8403113e-38
1165.09 204.918 -430.944 1.8403113e-38
1168.9399 211.547 -433.57001 1.8403113e-38
1150.72 226.6105 -432.03751 1.8403113e-38
932.185 476.995 -430.00699 1.8403113e-38
923.35101 489.61099 -430.51001 1.8403113e-38
692.69299 766.18402 -431.25299 1.8403113e-38
695.05298 775.323 -434.05499 1.8403113e-38
676.13898 784.02197 -430.83401 1.8403113e-38
680.40698 782.93201 -431.76599 1.8403113e-38
611.17499 867.34399 -432.31699 1.8403113e-38
582.98999 892.453 -430.36899 1.8403113e-38
601.38098 890.22803 -434.96301 1.8403113e-38
588.05499 908.24902 -435.48599 1.8403113e-38
566.21503 912.23499 -430.34601 1.8403113e-38
555.66803 927.87299 -431.08099 1.8403113e-38
556.01099 936.41498 -433.18201 1.8403113e-38
539.35303 949.72101 -431.67001 1.8403113e-38
544.547 951.18597 -433.45901 1.8403113e-38
528.05499 973.74103 -434.16501 1.8403113e-38
530.63599 970.24402 -434.06201 1.8403113e-38
511.79752 984.49646 -432.16602 1.8403113e-38
481.453 1016.11 -431.14499 1.8403113e-38
498.70901 1011.31 -434.819 1.8403113e-38
481.80099 1026.38 -433.651 1.8403113e-38
466.414 1045.59 -433.87799 1.8403113e-38
471.49399 1047.55 -435.75299 1.8403113e-38
449.86099 1052.58 -430.91501 1.8403113e-38
449.83099 1062.85 -433.31799 1.8403113e-38
433.96399 1077.4399 -432.327 1.8403113e-38
417.772 1091.85 -431.20499 1.8403113e-38
417.35001 1102.12 -433.49701 1.8403113e-38
403.444 1124.465 -434.8725 1.8403113e-38
384.827 1133.99 -431.92999 1.8403113e-38
383.99899 1144.25 -434.10699 1.8403113e-38
367.78101 1155.7 -432.28201 1.8403113e-38
365.92001 1163.1899 -433.52301 1.8403113e-38
349.086 1173.52 -431.26501 1.8403113e-38
347.60101 1182.8199 -433.035 1.8403113e-38
329.96799 1206.86 -433.76901 1.8403113e-38
333.625 1204.99 -434.349 1.8403113e-38
312.35999 1225.135 -433.1615 1.8403113e-38
294.72299 1245.1 -432.94 1.8403113e-38
293.48001 1258.0601 -435.63699 1.8403113e-38
275.233 1268.53 -433.01599 1.8403113e-38
273.14401 1278.65 -434.81 1.8403113e-38
253.978 1286.04 -431.21301 1.8403113e-38
252.75999 1301.79 -434.57101 1.8403113e-38
3238.1399 -2294.0901 -421.147 1.8403113e-38
3108.5801 -2129.98 -423.61899 1.8403113e-38
2993.0801 -1982.59 -426.07901 1.8403113e-38
2918.74 -1918.13 -420.526 1.8403113e-38
2878.79 -1842.75 -427.104 1.8403113e-38
2810.78 -1784.77 -421.79199 1.8403113e-38
2766.8501 -1710.8199 -426.927 1.8403113e-38
2715.6201 -1665.1 -423.40701 1.8403113e-38
2668.73 -1592.96 -427.289 1.8403113e-38
2621.74 -1551.52 -423.944 1.8403113e-38
2576.3101 -1483.62 -427.241 1.8403113e-38
2538.9199 -1449.12 -424.93799 1.8403113e-38
2506.5601 -1391.22 -429.52701 1.8403113e-38
2466.73 -1356.79 -426.526 1.8403113e-38
2426.6399 -1297.49 -429.28799 1.8403113e-38
2387.8899 -1265.02 -426.12799 1.8403113e-38
2334.6499 -1202.0601 -426.095 1.8403113e-38
2312.1599 -1178.83 -425.29099 1.8403113e-38
2282.4399 -1129.66 -428.565 1.8403113e-38
2253.22 -1104.2 -426.41 1.8403113e-38
2221.3601 -1056.09 -428.83801 1.8403113e-38
2188.9399 -1030.24 -425.884 1.8403113e-38
2164.04 -987.17902 -429.064 1.8403113e-38
2136.5901 -964.46899 -426.75699 1.8403113e-38
2111.54 -923.04602 -429.51199 1.8403113e-38
2084.5901 -901.44 -427.08401 1.8403113e-38
2052.1101 -858.79303 -428.05899 1.8403113e-38
2038.55 -843.20398 -427.94501 1.8403113e-38
2013.42 -804.89801 -429.94501 1.8403113e-38
1983.85 -784.05103 -426.61099 1.8403113e-38
1964.3101 -749.276 -429.336 1.8403113e-38
1934.37 -729.18201 -425.72299 1.8403113e-38
1922.41 -698.26001 -429.65302 1.8403113e-38
1900.54 -681.62299 -427.47299 1.8403113e-38
1879.45 -648.82898 -429.302 1.8403113e-38
1866.67 -635.651 -428.841 1.8403113e-38
1823.4 -588.53497 -427.86099 1.8403113e-38
1803.75 -558.427 -429.45901 1.8403113e-38
1789.58 -545.82098 -428.47699 1.8403113e-38
1753.02 -503.897 -428.147 1.8403113e-38
1734.03 -475.974 -429.41699 1.8403113e-38
1721.36 -464.65201 -428.54999 1.8403113e-38
1691.8199 -427.19101 -429.12399 1.8403113e-38
1658.72 -390.255 -428.582 1.8403113e-38
1633.5601 -356.061 -429.60901 1.8403113e-38
1527.04 -228.58099 -429.89499 1.8403113e-38
1292.48 48.940899 -429.77701 1.8403113e-38
1274.01 64.289597 -428.241 1.8403113e-38
1261.65 85.979202 -429.89301 1.8403113e-38
1233.37 111.095 -427.918 1.8403113e-38
1224.63 126.533 -429.10999 1.8403113e-38
1220.34 131.746 -429.14001 1.8403113e-38
1209.47 146.62399 -429.608 1.8403113e-38
1193.08 166.10001 -429.621 1.8403113e-38
1127.76 239.985 -428.789 1.8403113e-38
1124.12 244.604 -428.85901 1.8403113e-38
1106.51 256.05399 -426.64801 1.8403113e-38
1104.65 261.064 -427.30701 1.8403113e-38
1093.24 274.022 -427.17499 1.8403113e-38
1074.33 289.88 -425.634 1.8403113e-38
1096.76 280.65399 -429.70999 1.8403113e-38
1074.17 295.30899 -426.86499 1.8403113e-38
1065.96 308.95801 -427.78601 1.8403113e-38
1063.0601 313.41101 -428.02301 1.8403113e-38
1047.25 329.60901 -427.42599 1.8403113e-38
1053.74 326.57599 -428.51999 1.8403113e-38
1035.37 344.31601 -427.57251 1.8403113e-38
1024.835 362.14697 -428.82751 1.8403113e-38
1012.09 376.229 -428.58701 1.8403113e-38
1011.63 381.439 -429.67999 1.8403113e-38
995.65051 393.84552 -428.14752 1.8403113e-38
987.20801 409.57101 -429.48999 1.8403113e-38
978.13397 410.58499 -427.203 1.8403113e-38
970.71698 426.68152 -428.918 1.8403113e-38
950.68103 441.573 -426.83899 1.8403113e-38
961.37 441.84 -429.875 1.8403113e-38
941.95703 456.86902 -428.00153 1.8403113e-38
934.625 473.00299 -429.74899 1.8403113e-38
897.44299 497.06 -425.05099 1.8403113e-38
917.64697 491.58801 -429.38699 1.8403113e-38
903.71802 506.366 -428.98099 1.8403113e-38
888.97302 515.05298 -426.91699 1.8403113e-38
889.58899 520.85303 -428.45001 1.8403113e-38
877.32703 533.74048 -428.06348 1.8403113e-38
862.43701 547.41901 -427.1315 1.8403113e-38
851.91797 564.12549 -428.12601 1.8403113e-38
645.09802 776.65802 -420.47101 1.8403113e-38
652.74701 780.19702 -423.42899 1.8403113e-38
614.44598 828.99902 -424.228 1.8403113e-38
612.90997 833.56403 -424.87201 1.8403113e-38
609.71503 858.05103 -429.73001 1.8403113e-38
595.52698 873.73401 -429.46399 1.8403113e-38
566.17499 904.53101 -428.526 1.8403113e-38
494.54099 993.32001 -429.43701 1.8403113e-38
229.619 1288.05 -424.91 1.8403113e-38
225.918 1290.47 -424.44699 1.8403113e-38
3750.6599 -2930.3601 -414.39401 1.8403113e-38
3347.79 -2452.05 -414.577 1.8403113e-38
3302.0801 -2399.45 -414.20599 1.8403113e-38
3169.8799 -2228.23 -417.612 1.8403113e-38
3037.25 -2064.8101 -419.07101 1.8403113e-38
668.39899 713.52502 -412.13599 1.8403113e-38
617.96002 772.98901 -412.06 1.8403113e-38
624.32397 775.23199 -414.35699 1.8403113e-38
608.45697 786.35199 -412.55301 1.8403113e-38
610.93103 796.24799 -415.56299 1.8403113e-38
180.177 1284.0601 -410.21701 1.8403113e-38
202.524 1284.5901 -416.5585 1.8403113e-38
3629.24 -2814.8999 -407.715 1.8403113e-38
3492.45 -2643.1599 -409.96701 1.8403113e-38
3385.3301 -2543.23 -403.61801 1.8403113e-38
155.571 1279.9301 -402.40302 1.8403113e-38
176.502 1286.28 -409.71701 1.8403113e-38
126.929 1270.62 -392.25101 1.8403113e-38
131.217 1275.33 -394.54901 1.8403113e-38
150.92101 1273.41 -399.57999 1.8403113e-38
3589.6899 -2879.4099 -381.573 1.8403113e-38
102.978 1265.46 -384.37601 1.8403113e-38
107.124 1270.28 -386.66 1.8403113e-38
605.55298 612.33704 -370.90399 1.8403113e-38
610.10303 640.70801 -378.828 1.8403113e-38
79.297203 1259.84 -376.47101 1.8403113e-38
82.915001 1258.97 -377.271 1.8403113e-38
59.8437 1260.76 -371.27399 1.8403113e-38
706.68701 475.67099 -366.96399 1.8403113e-38
629.59399 544.21198 -361.603 1.8403113e-38
632.47546 567.66602 -367.90948 1.8403113e-38
622.30103 578.62402 -367.651 1.8403113e-38
621.16901 582.38397 -368.21799 1.8403113e-38
34.792648 1255.7 -363.11652 1.8403113e-38
55.8936 1253.79 -368.539 1.8403113e-38
3410.96 -2761.49 -359.52701 1.8403113e-38
616.302 526.80499 -353.82001 1.8403113e-38
593.43347 574.62451 -358.68149 1.8403113e-38
13.5481 1248.54 -355.526 1.8403113e-38
10.066 1252.0601 -355.384 1.8403113e-38
664.16302 447.69901 -348.569 1.8403113e-38
600.08051 492.45599 -341.24597 1.8403113e-38
-33.586403 1246.05 -341.82901 1.8403113e-38
-12.6636 1244.74 -347.34201 1.8403113e-38
-9.1905603 1244.22 -348.18799 1.8403113e-38
3346.6399 -2779.27 -337.45999 1.8403113e-38
622.88898 434.776 -334.05399 1.8403113e-38
614.52802 445.03949 -334.13651 1.8403113e-38
636 440.95099 -339.14999 1.8403113e-38
597.48602 452.14899 -331.064 1.8403113e-38
601.69897 451.55899 -332.09799 1.8403113e-38
596.58551 468.9245 -334.75098 1.8403113e-38
-55.901703 1238.4399 -333.83502 1.8403113e-38
-641.67401 1928.14 -332.74799 1.8403113e-38
3284.75 -2751.02 -326.87201 1.8403113e-38
-673.16901 1912.14 -320.23099 1.8403113e-38
-645.13098 1919.8199 -329.83301 1.8403113e-38
-685.73602 1930.9399 -321.146 1.8403113e-38
-748.565 2019.87 -324.539 1.8403113e-38
3305.8 -2837.7 -312.384 1.8403113e-38
-741.64801 1982.3 -317.647 1.8403113e-38
-793.07501 2015.6801 -311.17499 1.8403113e-38
-791.76703 2030.01 -314.90201 1.8403113e-38
3284.78 -2842.5601 -305.39499 1.8403113e-38
-838.00403 2045.75 -305.73199 1.8403113e-38
-847.23901 2051.6201 -304.54099 1.8403113e-38
3670.9199 -3355.47 -292.43799 1.8403113e-38
-887.03802 2048.74 -292.793 1.8403113e-38
-880.73999 2050.4099 -294.93701 1.8403113e-38
3218.5901 -2856.1599 -283.79199 1.8403113e-38
-924.91302 2040.53 -280.32999 1.8403113e-38
-918.65399 2042.35 -282.49799 1.8403113e-38
3211.1599 -2872.3401 -277.927 1.8403113e-38
-962.22803 2046.26 -271.29401 1.8403113e-38
-967.24799 2041.5601 -268.79501 1.8403113e-38
-1010.24 2042.64 -257.08801 1.8403113e-38
-1004.84 2046.58 -259.51401 1.8403113e-38
3732.3301 -3638.5801 -243.078 1.8403113e-38
-386.55801 1202.51 -233.41701 1.8403113e-38
-1002.79 1941.1801 -235.34599 1.8403113e-38
-1001.78 1953.14 -238.436 1.8403113e-38
-1069.7 2003.84 -231.44099 1.8403113e-38
-51.604198 756.03302 -221.812 1.8403113e-38
-50.833599 770.41602 -225.40199 1.8403113e-38
-1068.88 1988.17 -227.98801 1.8403113e-38
-76.567398 735.94202 -210.15199 1.8403113e-38
-64.450096 749.00854 -216.58951 1.8403113e-38
-255.642 950.48999 -210.688 1.8403113e-38
-1066.53 1916.61 -211.849 1.8403113e-38
-90.170601 720.88501 -202.834 1.8403113e-38
-88.8871 721.76703 -203.39799 1.8403113e-38
-77.849503 734.13397 -209.371 1.8403113e-38
-272.40799 945.078 -204.754 1.8403113e-38
-256.759 946.17902 -209.366 1.8403113e-38
-292.52899 951.742 -200.72 1.8403113e-38
-276.242 951.21698 -205.12801 1.8403113e-38
-297.298 960.63599 -201.481 1.8403113e-38
-1068.96 1908.05 -209.164 1.8403113e-38
-115.243 710.75854 -193.4825 1.8403113e-38
-103.215 721.99548 -199.4655 1.8403113e-38
-205.688 804.33698 -190.283 1.8403113e-38
-1063.6 1835.1801 -193.55299 1.8403113e-38
-141.42749 706.07751 -185.0995 1.8403113e-38
-170.69501 719.375 -180.078 1.8403113e-38
-155.92349 711.12048 -182.25 1.8403113e-38
-128.68399 710.47498 -189.6765 1.8403113e-38
-173.411 725.90802 -180.856 1.8403113e-38
-194.65199 763.31201 -183.72501 1.8403113e-38
1527.42 -1447.76 -143.86501 1.8403113e-38
1499.8 -1468.37 -131.343 1.8403113e-38
1509.8101 -1465.1 -134.895 1.8403113e-38
-648.77301 1084.74 -132.82899 1.8403113e-38
1445.96 -1463.42 -117.528 1.8403113e-38
1437.36 -1488.7 -109.2 1.8403113e-38
1394.0699 -1458.42 -104.264 1.8403113e-38
1337.12 -1446.3 -91.264503 1.8403113e-38
1328.73 -1425.26 -93.872398 1.8403113e-38
-455.862 683.89349 -92.419052 1.8403113e-38
-445.67001 696.29401 -98.164902 1.8403113e-38
-449.50299 700.297 -98.037598 1.8403113e-38
1345.28 -1501.1 -80.674103 1.8403113e-38
1362.78 -1506.65 -84.2407 1.8403113e-38
-484.33649 674.93701 -82.395447 1.8403113e-38
-467.73651 675.74902 -87.204102 1.8403113e-38
1393.79 -1588.73 -73.604401 1.8403113e-38
-506.327 654.72699 -71.534401 1.8403113e-38
-490.94101 659.914 -77.032303 1.8403113e-38
-512.01801 665.12201 -72.390999 1.8403113e-38
-498.26401 668.53302 -77.0177 1.8403113e-38
1353.4399 -1594.34 -61.061501 1.8403113e-38
1361.38 -1566.83 -69.726303 1.8403113e-38
-536.45752 647.98499 -61.570099 1.8403113e-38
-521.98047 652.87451 -66.745102 1.8403113e-38
1376.3 -1634.17 -58.074001 1.8403113e-38
-570.82202 643.14001 -50.872898 1.8403113e-38
-569.10699 643.15198 -51.353001 1.8403113e-38
-554.56952 647.53101 -56.425098 1.8403113e-38
1371.83 -1667.3 -49.056099 1.8403113e-38
1342.64 -1647.51 -45.578999 1.8403113e-38
-554.46899 580.13702 -40.635899 1.8403113e-38
-569.59802 618.36798 -45.399899 1.8403113e-38
-581.31403 634.60199 -45.950298 1.8403113e-38
