# .PCD v0.7 - Point Cloud Data file format
VERSION 0.7
FIELDS x y z rgb
SIZE 4 4 4 4
TYPE F F F F
COUNT 1 1 1 1
WIDTH 341
HEIGHT 1
VIEWPOINT 0 0 0 1 0 0 0
POINTS 341
DATA ascii
1421.1 -479.35699 -441.37299 1.8403113e-38
1417.84 -442.87399 -440.41299 1.8403113e-38
1421.35 -413.00101 -441.875 1.8403113e-38
1416.09 -389.91699 -440.104 1.8403113e-38
1416.84 -368.646 -440.50601 1.8403113e-38
1417.22 -347.43201 -440.77701 1.8403113e-38
1419.09 -326.64899 -441.586 1.8403113e-38
1415.98 -305.03601 -440.58701 1.8403113e-38
1419.01 -284.64801 -441.81299 1.8403113e-38
1417.04 -263.547 -441.22699 1.8403113e-38
1414.84 -222.02 -440.68301 1.8403113e-38
1421.1899 -202.063 -443.116 1.8403113e-38
1424.91 -189.18201 -444.54999 1.8403113e-38
1436.59 -182.52901 -448.84299 1.8403113e-38
1423.365 -164.752 -444.13901 1.8403113e-38
1411.97 -140.22501 -440.14301 1.8403113e-38
1411.34 -99.640602 -440.16501 1.8403113e-38
1411 -79.362999 -440.16501 1.8403113e-38
1415.01 -58.883701 -441.75299 1.8403113e-38
1414 -38.542599 -441.51001 1.8403113e-38
1410.78 -18.3766 -440.46301 1.8403113e-38
1414.72 2.44718 -442.02301 1.8403113e-38
1408.96 22.328899 -440.052 1.8403113e-38
1411.28 43.193298 -441.02301 1.8403113e-38
1415.1 64.477303 -442.54401 1.8403113e-38
1410.21 84.4786 -440.888 1.8403113e-38
1414.24 106.16 -442.48801 1.8403113e-38
1408.3 147.133 -440.57999 1.8403113e-38
1411.92 190.91901 -442.16901 1.8403113e-38
1407.33 277.64801 -441.03101 1.8403113e-38
1404.28 416.46701 -440.77802 1.8403113e-38
1405.21 491.87601 -441.582 1.8403113e-38
1406.98 -1486.24 -430.02499 1.8403113e-38
1414.45 -1473.17 -432.82199 1.8403113e-38
1408.96 -1440.92 -431.022 1.8403113e-38
1409.22 -1419.6801 -431.24799 1.8403113e-38
1407.89 -1393.72 -430.92401 1.8403113e-38
1409.5601 -1374.92 -431.64801 1.8403113e-38
1404.97 -1346.25 -430.155 1.8403113e-38
1410.0699 -1332.01 -432.09799 1.8403113e-38
1407.53 -1287.33 -431.44901 1.8403113e-38
1406.16 -1264.14 -431.095 1.8403113e-38
1408.55 -1248.03 -432.06601 1.8403113e-38
1407.96 -1226.39 -431.983 1.8403113e-38
1414.09 -1214.5699 -434.28601 1.8403113e-38
1410.24 -1190.29 -433.034 1.8403113e-38
1413.3101 -1175.85 -434.24301 1.8403113e-38
1413.0699 -1155.79 -434.27802 1.8403113e-38
1416.53 -1142.13 -435.62299 1.8403113e-38
1411.55 -1118.24 -433.957 1.8403113e-38
1417.5601 -1107.3199 -436.211 1.8403113e-38
1412.75 -1084.27 -434.603 1.8403113e-38
1416.33 -1071.52 -435.98401 1.8403113e-38
1413.91 -1051.2 -435.228 1.8403113e-38
1416.47 -1037.9399 -436.24399 1.8403113e-38
1415.8 -1019.62 -436.11301 1.8403113e-38
1417.35 -1005.87 -436.759 1.8403113e-38
1417.75 -988.84998 -437.01199 1.8403113e-38
1412.97 -970.47601 -435.38501 1.8403113e-38
1410.65 -951.83502 -434.65601 1.8403113e-38
1414.66 -940.75598 -436.185 1.8403113e-38
1411.9399 -922.224 -435.306 1.8403113e-38
1419.59 -914.07599 -438.14301 1.8403113e-38
1406.34 -888.35797 -433.479 1.8403113e-38
1419.28 -884.146 -438.21301 1.8403113e-38
1411.8199 -863.10303 -435.63 1.8403113e-38
1414.36 -851.78198 -436.62201 1.8403113e-38
1418.41 -838.93903 -438.17499 1.8403113e-38
1419.13 -826.64801 -438.51501 1.8403113e-38
1415.66 -809.10699 -437.358 1.8403113e-38
1416.9399 -797.49103 -437.89801 1.8403113e-38
1413.08 -780.099 -436.60101 1.8403113e-38
1416.59 -770.117 -437.93799 1.8403113e-38
1414.84 -754.302 -437.39899 1.8403113e-38
1415.67 -742.96503 -437.77301 1.8403113e-38
1406.11 -723.02502 -434.41599 1.8403113e-38
1419.21 -718.828 -439.20801 1.8403113e-38
1412.64 -700.87402 -436.927 1.8403113e-38
1407.15 -686.69702 -435.017 1.8403113e-38
1412 -675.16901 -436.854 1.8403113e-38
1416.4301 -666.42902 -438.521 1.8403113e-38
1415.97 -652.19702 -438.44199 1.8403113e-38
1412.55 -639.75098 -437.27399 1.8403113e-38
1413.51 -626.40997 -437.70499 1.8403113e-38
1412.45 -615.38702 -437.38599 1.8403113e-38
1410.54 -600.87903 -436.78201 1.8403113e-38
1417.96 -593.87701 -439.52301 1.8403113e-38
1408.8199 -576.36401 -436.30701 1.8403113e-38
1417.85 -570.10797 -439.63 1.8403113e-38
1407.51 -552.41901 -435.97699 1.8403113e-38
1412.89 -544.73199 -437.98401 1.8403113e-38
1409.29 -530.02802 -436.76199 1.8403113e-38
1416.3 -523.034 -439.35901 1.8403113e-38
1410.66 -507.70499 -437.39999 1.8403113e-38
1414.88 -499.746 -438.98499 1.8403113e-38
1414.33 -486.383 -438.86499 1.8403113e-38
1412.23 -463.297 -438.24301 1.8403113e-38
1415.27 -455.14301 -439.39999 1.8403113e-38
1413.51 -432.60199 -438.89899 1.8403113e-38
1405.86 -417.45499 -436.211 1.8403113e-38
1413.47 -397.87701 -439.099 1.8403113e-38
1413.4301 -376.32001 -439.21899 1.8403113e-38
1413.9399 -355.05801 -439.53601 1.8403113e-38
1410.4 -333.09799 -438.383 1.8403113e-38
1412.96 -312.552 -439.44 1.8403113e-38
1409.6 -291.04599 -438.35199 1.8403113e-38
1410.54 -270.41599 -438.81799 1.8403113e-38
1409.26 -249.564 -438.48199 1.8403113e-38
1412.84 -242.342 -439.832 1.8403113e-38
1407.63 -228.80701 -438.01801 1.8403113e-38
1410.34 -208.582 -439.129 1.8403113e-38
1408.03 -147.237 -438.66501 1.8403113e-38
1409.4 -126.944 -439.29001 1.8403113e-38
1409.47 -119.9 -439.35999 1.8403113e-38
1405.74 -106.617 -438.08499 1.8403113e-38
1402.7 -86.412003 -437.10001 1.8403113e-38
1405.89 -66.064598 -438.388 1.8403113e-38
1401.24 -46.019299 -436.82001 1.8403113e-38
1403.77 -25.564199 -437.86499 1.8403113e-38
1405.02 -5.0833702 -438.44601 1.8403113e-38
1406.86 15.5762 -439.24399 1.8403113e-38
1402.76 35.598099 -437.875 1.8403113e-38
1400.2 55.787899 -437.06699 1.8403113e-38
1400.09 76.400803 -437.15399 1.8403113e-38
1404.25 97.935303 -438.80399 1.8403113e-38
1393.29 116.609 -434.931 1.8403113e-38
1404.99 125.28 -439.242 1.8403113e-38
1396.75 138.287 -436.323 1.8403113e-38
1398.91 159.937 -437.24301 1.8403113e-38
1404.8199 167.558 -439.44101 1.8403113e-38
1398.87 181.256 -437.358 1.8403113e-38
1397.54 202.397 -437.00699 1.8403113e-38
1403.1899 210.11099 -439.10999 1.8403113e-38
1394.95 223.30099 -436.19299 1.8403113e-38
1404.08 232.179 -439.56799 1.8403113e-38
1394.7 245.086 -436.23499 1.8403113e-38
1403.67 254.07899 -439.55499 1.8403113e-38
1396.74 267.89401 -437.11801 1.8403113e-38
1393.92 289.25201 -436.22299 1.8403113e-38
1400.79 297.80701 -438.77899 1.8403113e-38
1396.9 313.02399 -437.45401 1.8403113e-38
1400.97 320.633 -438.98499 1.8403113e-38
1391.54 333.79199 -435.63199 1.8403113e-38
1401.61 343.95499 -439.35901 1.8403113e-38
1396.27 359 -437.509 1.8403113e-38
1400.0699 366.67001 -438.93799 1.8403113e-38
1389.27 379.423 -435.08701 1.8403113e-38
1398.11 389.465 -438.366 1.8403113e-38
1399.0699 407.88901 -438.82999 1.8403113e-38
1387 426.272 -434.552 1.8403113e-38
1398.01 437.841 -438.63101 1.8403113e-38
1394.0601 454.474 -437.293 1.8403113e-38
1400.63 464.03601 -439.74399 1.8403113e-38
1395.49 480.371 -437.97501 1.8403113e-38
1388.95 502.25601 -435.729 1.8403113e-38
1395.99 512.448 -438.354 1.8403113e-38
1392.6801 530.396 -437.26099 1.8403113e-38
1399.51 540.71802 -439.81 1.8403113e-38
1415.36 -3589.1201 -420.10001 1.8403113e-38
1417.35 -3481.1101 -421.48999 1.8403113e-38
1414.4301 -3394.8301 -420.961 1.8403113e-38
1420.88 -3310.9099 -423.82599 1.8403113e-38
1421.98 -3242.9099 -424.647 1.8403113e-38
1421.22 -3147.23 -424.95999 1.8403113e-38
1422.83 -3086.1499 -425.922 1.8403113e-38
1425.78 -3008.6399 -427.47198 1.8403113e-38
1421.05 -2935.8899 -426.20001 1.8403113e-38
1429.84 -2880.03 -429.74301 1.8403113e-38
1416.9399 -2792.1399 -425.59201 1.8403113e-38
1421.9399 -2733 -427.77701 1.8403113e-38
1420.5699 -2677.6599 -427.617 1.8403113e-38
1398.51 -1501.74 -426.84698 1.8403113e-38
1402.8 -1301.4301 -429.64099 1.8403113e-38
1411.49 -3661.6101 -418.24301 1.8403113e-38
1374.5601 -3664.1599 -404.789 1.8403113e-38
1340.03 -3636.3799 -392.392 1.8403113e-38
1284.54 490.211 -397.65799 1.8403113e-38
1253.38 1886.14 -394.92999 1.8403113e-38
1260.5601 1971.17 -398.06699 1.8403113e-38
1244.16 2052.52 -392.603 1.8403113e-38
1255.0601 2054.6899 -396.58099 1.8403113e-38
1333.9301 -3845.01 -388.88699 1.8403113e-38
1335.1 -3751.1899 -389.89301 1.8403113e-38
1273.21 -1361.09 -382.11301 1.8403113e-38
1236.26 1938.4301 -389.021 1.8403113e-38
1212.2 2054.54 -380.98401 1.8403113e-38
1279.1801 -2291.8701 -378.543 1.8403113e-38
1258.45 -1364.8101 -376.71899 1.8403113e-38
1205.1899 2061.1899 -378.47198 1.8403113e-38
1255.1 -3692.24 -361.14301 1.8403113e-38
1217.85 -1400.4399 -361.72299 1.8403113e-38
1229.9 -1393.4399 -366.15201 1.8403113e-38
1231.4301 -1373.28 -366.83499 1.8403113e-38
1239.1801 -1360.55 -369.73401 1.8403113e-38
1187.12 434.65399 -361.86401 1.8403113e-38
1170.37 2055.3 -365.76599 1.8403113e-38
1229.4301 -3694.26 -351.78699 1.8403113e-38
1208.71 -1410.1899 -358.33899 1.8403113e-38
1134.25 1986.91 -352.19901 1.8403113e-38
1127.75 2052.3899 -350.237 1.8403113e-38
1157.77 -1359.01 -340.116 1.8403113e-38
1132.41 420.99799 -341.867 1.8403113e-38
1145.9301 425.57401 -346.81601 1.8403113e-38
1117.28 2049.22 -346.40701 1.8403113e-38
1193.38 -3697.3101 -338.651 1.8403113e-38
1158.28 -1784.53 -337.67801 1.8403113e-38
1142.6801 -1721.0601 -332.39099 1.8403113e-38
1134.87 -1580.97 -330.41199 1.8403113e-38
1135.33 -1552.15 -330.758 1.8403113e-38
1135.28 -1524.6899 -330.909 1.8403113e-38
1134.83 -1496.0699 -330.92099 1.8403113e-38
1139.05 -1353.71 -333.33701 1.8403113e-38
1104.41 419.17899 -331.66901 1.8403113e-38
1109.3199 426.38699 -333.49799 1.8403113e-38
1112.45 492.88199 -335.04901 1.8403113e-38
1100.1801 505.759 -330.66299 1.8403113e-38
1110.28 509.56299 -334.36099 1.8403113e-38
1079.12 2056.3 -332.56299 1.8403113e-38
1090.16 2061.6399 -336.61401 1.8403113e-38
1164.28 -3684.3799 -328.14099 1.8403113e-38
1129.6 -1763.5699 -327.36801 1.8403113e-38
1130.62 -1663.79 -328.354 1.8403113e-38
1128.6801 -1629.8 -327.85901 1.8403113e-38
1131.4 -1603.46 -329.01199 1.8403113e-38
1105.99 -1396.88 -321.03799 1.8403113e-38
1106.95 -1374.27 -321.52701 1.8403113e-38
1114.3 -1362.16 -324.27802 1.8403113e-38
1121.71 -1350.42 -327.04501 1.8403113e-38
1096.0549 436.0025 -328.73199 1.8403113e-38
1097.46 456.06699 -329.36801 1.8403113e-38
1098.22 460.521 -329.66901 1.8403113e-38
1091.9 473.41101 -327.45099 1.8403113e-38
1048.7 2058.8601 -321.508 1.8403113e-38
1130.24 -3694.3799 -315.689 1.8403113e-38
1083.37 -1811.49 -310.25 1.8403113e-38
1086.67 -1779.6801 -311.64801 1.8403113e-38
1096.05 -1764.87 -315.15302 1.8403113e-38
1107.9301 -1752.6899 -319.54999 1.8403113e-38
1100.75 -1413.14 -319.03 1.8403113e-38
1041.29 2063.5701 -318.841 1.8403113e-38
1000.18 2059.6599 -303.85599 1.8403113e-38
1009.99 2062.79 -307.44601 1.8403113e-38
995.26648 441.44849 -292.086 1.8403113e-38
969.36902 2059.27 -292.642 1.8403113e-38
1052.5601 -3458.8799 -288.87299 1.8403113e-38
968.35797 437.646 -282.26999 1.8403113e-38
969.99298 441.85101 -282.89099 1.8403113e-38
961.95898 2063.47 -289.97101 1.8403113e-38
949.25598 443.711 -275.35599 1.8403113e-38
952.72998 444.04901 -276.62201 1.8403113e-38
928.80798 2053.96 -277.84799 1.8403113e-38
923.82703 2066.53 -276.11301 1.8403113e-38
986.28699 -3301.52 -265.72699 1.8403113e-38
928.66101 444.97101 -267.86899 1.8403113e-38
932.78699 446.17801 -269.37701 1.8403113e-38
883.53802 2060.1699 -261.41199 1.8403113e-38
893.23297 2065.1101 -264.97101 1.8403113e-38
970.99402 -4424.3301 -253.23399 1.8403113e-38
967.83698 -4217.8501 -253.36 1.8403113e-38
965.32501 -3959.73 -254.03799 1.8403113e-38
962.28003 -3788.3201 -253.987 1.8403113e-38
962.15302 -3590.96 -255.158 1.8403113e-38
962.01801 -3460.3301 -255.91499 1.8403113e-38
963.17999 -3302.78 -257.31 1.8403113e-38
888.64301 446.392 -253.314 1.8403113e-38
892.604 448.06201 -254.76601 1.8403113e-38
904.6015 441.08502 -259.08899 1.8403113e-38
853.40002 2059.1799 -250.438 1.8403113e-38
944.70203 -4543.6899 -242.92999 1.8403113e-38
853.54352 449.04602 -240.55701 1.8403113e-38
869.224 446.591 -246.24899 1.8403113e-38
872.41199 447.80301 -247.416 1.8403113e-38
847.24298 921.16803 -241.177 1.8403113e-38
861.82397 994.55298 -246.936 1.8403113e-38
846.46399 2064.5901 -247.94701 1.8403113e-38
914.995 -4545.6001 -232.10699 1.8403113e-38
843.31848 457.8765 -236.8905 1.8403113e-38
832.63 466.14951 -233.052 1.8403113e-38
826.37299 480.242 -230.862 1.8403113e-38
823.03802 474.74701 -229.614 1.8403113e-38
815.32349 487.22198 -226.884 1.8403113e-38
802.40698 492.6185 -222.21649 1.8403113e-38
797.68054 554.07251 -220.8755 1.8403113e-38
799.48499 580.18103 -221.69299 1.8403113e-38
794.703 598.82098 -220.06799 1.8403113e-38
798.16998 605.99402 -221.37399 1.8403113e-38
799.646 633.06897 -222.078 1.8403113e-38
800.72803 637.03003 -222.496 1.8403113e-38
797.22699 660.04401 -221.364 1.8403113e-38
801.51599 664.39099 -222.952 1.8403113e-38
800.82849 694.63849 -222.888 1.8403113e-38
804.33148 732.43848 -224.3965 1.8403113e-38
807.08002 769.44598 -225.625 1.8403113e-38
807.82202 774.35199 -225.925 1.8403113e-38
810.81201 812.28699 -227.24699 1.8403113e-38
814.06 822.45099 -228.492 1.8403113e-38
813.039 859.62799 -228.35001 1.8403113e-38
870.896 -4546.5298 -216.05299 1.8403113e-38
791.21399 499.25299 -218.18401 1.8403113e-38
791.31598 500.797 -218.231 1.8403113e-38
791.77002 522.7915 -218.53149 1.8403113e-38
794.745 575.289 -219.938 1.8403113e-38
840.50098 -4542.02 -205.02 1.8403113e-38
759.802 792.46301 -208.562 1.8403113e-38
755.91199 820.03198 -207.31599 1.8403113e-38
797.07599 -4546.9902 -189.186 1.8403113e-38
767.62 -4549.9502 -178.448 1.8403113e-38
665.03497 1407.97 -177.871 1.8403113e-38
722.77002 -4539.0898 -162.19299 1.8403113e-38
617.64001 1326.64 -160.12199 1.8403113e-38
620.94202 1324.63 -161.311 1.8403113e-38
642.66602 1327.63 -169.235 1.8403113e-38
691.74103 -4522.6602 -151.00301 1.8403113e-38
594.11047 1322.7549 -151.535 1.8403113e-38
567.729 1311.53 -141.86499 1.8403113e-38
654.06201 -4599.5801 -136.81599 1.8403113e-38
541.38501 1307.91 -132.256 1.8403113e-38
546.02301 1315.25 -133.989 1.8403113e-38
630.90997 -4697.3901 -127.787 1.8403113e-38
518.3205 1301.2949 -123.8215 1.8403113e-38
641.91101 -7864 -112.255 1.8403113e-38
598.21899 -5515.21 -110.845 1.8403113e-38
606.82703 -5061.1299 -116.779 1.8403113e-38
494.04449 1295.9551 -114.9535 1.8403113e-38
468.77399 1293.65 -105.743 1.8403113e-38
471.892 1292.59 -106.872 1.8403113e-38
594.09998 -7869.8799 -94.819397 1.8403113e-38
446.4935 1286.8501 -97.593002 1.8403113e-38
401.21201 1274.63 -81.039101 1.8403113e-38
422.3765 1273.15 -88.731903 1.8403113e-38
376.7045 1269.325 -72.087402 1.8403113e-38
398.19601 1275.25 -79.945198 1.8403113e-38
514.62097 -7866.52 -65.916397 1.8403113e-38
352.56 1268.4399 -63.295601 1.8403113e-38
355.71701 1274.11 -64.479103 1.8403113e-38
329.94101 1263.9 -55.036098 1.8403113e-38
332.86801 1261.71 -56.0877 1.8403113e-38
466.711 -7870.6001 -48.4561 1.8403113e-38
307.509 1255.9301 -46.823601 1.8403113e-38
310.41901 1255.89 -47.881901 1.8403113e-38
288.04901 1255.65 -39.740002 1.8403113e-38
