# .PCD v0.7 - Point Cloud Data file format
VERSION 0.7
FIELDS x y z rgb
SIZE 4 4 4 4
TYPE F F F F
COUNT 1 1 1 1
WIDTH 351
HEIGHT 1
VIEWPOINT 0 0 0 1 0 0 0
POINTS 351
DATA ascii
1377.11 247.32401 -310.311 1.8403113e-38
1377.72 258.90201 -310.155 1.8403113e-38
1385.59 272.32599 -312.56299 1.8403113e-38
1382.84 306.51001 -310.44501 1.8403113e-38
1370.85 234.56799 -308.46201 1.8403113e-38
1373.16 280.73199 -307.784 1.8403113e-38
1370.75 291.61301 -306.55099 1.8403113e-38
1196 -1150.54 -290.60599 1.8403113e-38
1196.26 -1131.0601 -290.06299 1.8403113e-38
1200.2 -1115.9399 -290.99399 1.8403113e-38
1210.2 -1051.5 -292.50201 1.8403113e-38
1212.03 -1017.51 -292.04501 1.8403113e-38
1210.95 -981.79102 -290.48099 1.8403113e-38
1218.89 -972.24402 -293.04501 1.8403113e-38
1230.9 -752.04303 -290.16101 1.8403113e-38
1244.87 -640.61902 -291.56201 1.8403113e-38
1245.9 -628.42902 -291.535 1.8403113e-38
1248.4301 -604.59998 -291.66901 1.8403113e-38
1248.42 -567.52399 -290.448 1.8403113e-38
1254.66 -558.54102 -292.41199 1.8403113e-38
1250.64 -544.44202 -290.492 1.8403113e-38
1252.4301 -533.34802 -290.77899 1.8403113e-38
1256.58 -511.58499 -291.56699 1.8403113e-38
1255.15 -487.54999 -290.25699 1.8403113e-38
1256.4301 -476.54199 -290.35901 1.8403113e-38
1265.45 -468.827 -293.37701 1.8403113e-38
1267.4399 -458.13101 -293.74399 1.8403113e-38
1267.5699 -446.73901 -293.418 1.8403113e-38
1263.2 -433.681 -291.40399 1.8403113e-38
1268.41 -424.38599 -292.987 1.8403113e-38
1264.6801 -411.79501 -291.224 1.8403113e-38
1267.95 -401.827 -292.07901 1.8403113e-38
1270.24 -391.522 -292.57101 1.8403113e-38
1276.91 -382.698 -294.70099 1.8403113e-38
1273.66 -370.59 -293.12399 1.8403113e-38
1276.59 -360.543 -293.85501 1.8403113e-38
1268.62 -347.19101 -290.526 1.8403113e-38
1275.87 -338.51999 -292.87 1.8403113e-38
1274.91 -327.431 -292.15701 1.8403113e-38
1279.3 -317.875 -293.43399 1.8403113e-38
1278.15 -306.82501 -292.655 1.8403113e-38
1276.91 -295.82101 -291.84201 1.8403113e-38
1278.7 -275.026 -291.80899 1.8403113e-38
1281.98 -254.64999 -292.32901 1.8403113e-38
1279.39 -233.158 -290.68301 1.8403113e-38
1280.26 -222.90601 -290.66299 1.8403113e-38
1281.05 -212.65601 -290.612 1.8403113e-38
1280.83 -202.254 -290.189 1.8403113e-38
1291.66 -193.619 -293.83099 1.8403113e-38
1283.35 -171.69 -290.099 1.8403113e-38
1286.51 -161.82001 -290.92001 1.8403113e-38
1285.86 -151.461 -290.34299 1.8403113e-38
1290.72 -141.74001 -291.78601 1.8403113e-38
1287.1 -131.09801 -290.12201 1.8403113e-38
1297.37 -111.499 -293.20001 1.8403113e-38
1289.73 -100.661 -290.077 1.8403113e-38
1297.95 -90.972397 -292.73599 1.8403113e-38
1299.52 -80.788803 -292.97101 1.8403113e-38
1294.4301 -70.2939 -290.78299 1.8403113e-38
1296.51 -39.706299 -290.53 1.8403113e-38
1301.42 -29.5252 -291.97601 1.8403113e-38
1298.73 -19.274401 -290.66299 1.8403113e-38
1302.53 -8.9992399 -291.70401 1.8403113e-38
1300.61 1.22646 -290.672 1.8403113e-38
1301.22 21.752899 -290.21799 1.8403113e-38
1307.13 42.6283 -291.672 1.8403113e-38
1306.66 52.929001 -291.16501 1.8403113e-38
1310.8101 63.5839 -292.31699 1.8403113e-38
1311.11 73.996597 -292.08499 1.8403113e-38
1312.4301 105.399 -291.53299 1.8403113e-38
1310.52 115.625 -290.50299 1.8403113e-38
1313.1899 126.443 -291.117 1.8403113e-38
1314.14 158.19299 -290.41699 1.8403113e-38
1318.17 201.53101 -290.452 1.8403113e-38
1349.35 320.07001 -297.858 1.8403113e-38
1338.4 421.465 -290.55801 1.8403113e-38
1357.72 478.09601 -295.698 1.8403113e-38
1345.83 485.34601 -291.15201 1.8403113e-38
1360.85 504.58401 -295.96301 1.8403113e-38
1345.35 510.112 -290.16101 1.8403113e-38
1496.24 2081.02 -293.22501 1.8403113e-38
1142.0699 -1447.71 -280.828 1.8403113e-38
1144.01 -1424.21 -280.75699 1.8403113e-38
1145.63 -1400.78 -280.57599 1.8403113e-38
1149.74 -1381.42 -281.42899 1.8403113e-38
1149.08 -1355.77 -280.345 1.8403113e-38
1160.66 -1347.53 -284.272 1.8403113e-38
1160.02 -1322.78 -283.228 1.8403113e-38
1165.49 -1306.6801 -284.68201 1.8403113e-38
1164.27 -1282.12 -283.42999 1.8403113e-38
1175.27 -1273.73 -287.142 1.8403113e-38
1172.3101 -1247.78 -285.21701 1.8403113e-38
1180.6 -1236.3 -287.84399 1.8403113e-38
1185.6899 -1221.02 -289.189 1.8403113e-38
1176.91 -1189.4399 -284.96701 1.8403113e-38
1190.33 -1184.59 -289.67099 1.8403113e-38
1191.67 -1165.72 -289.539 1.8403113e-38
1196.0699 -1092.37 -288.72 1.8403113e-38
1198.9301 -1076.66 -289.242 1.8403113e-38
1196.92 -1056.13 -287.83899 1.8403113e-38
1194.85 -1018.15 -285.84 1.8403113e-38
1207.09 -995.26801 -289.52499 1.8403113e-38
1200.5 -938.66901 -285.276 1.8403113e-38
1206.66 -927.94299 -287.155 1.8403113e-38
1208.4 -913.37097 -287.306 1.8403113e-38
1209.25 -898.211 -287.116 1.8403113e-38
1216.5 -888.69 -289.43201 1.8403113e-38
1217.79 -874.19501 -289.42401 1.8403113e-38
1213.74 -855.49902 -287.34 1.8403113e-38
1216.5701 -835.17151 -287.69849 1.8403113e-38
1219.85 -815.51501 -288.24301 1.8403113e-38
1221.11 -801.85699 -288.24799 1.8403113e-38
1222.21 -788.23999 -288.202 1.8403113e-38
1224.71 -775.79303 -288.69901 1.8403113e-38
1223.99 -761.13202 -287.95499 1.8403113e-38
1227.55 -735.83197 -288.41299 1.8403113e-38
1230.3199 -724.02399 -289.02899 1.8403113e-38
1232.1801 -711.69299 -289.298 1.8403113e-38
1231.52 -697.82202 -288.60501 1.8403113e-38
1229.92 -683.50702 -287.55301 1.8403113e-38
1226.55 -668.26501 -285.82999 1.8403113e-38
1235.97 -661.104 -289.008 1.8403113e-38
1237.2 -648.91699 -289.05701 1.8403113e-38
1240.2 -612.53101 -288.94699 1.8403113e-38
1244.1 -589.78699 -289.61401 1.8403113e-38
1243.8 -577.32098 -289.095 1.8403113e-38
1249 -519.83698 -289.08899 1.8403113e-38
1252.04 -497.793 -289.46799 1.8403113e-38
1272.8199 -284.19699 -289.979 1.8403113e-38
1274.42 -263.50699 -289.87799 1.8403113e-38
1274.74 -242.658 -289.311 1.8403113e-38
1281.98 -181.78799 -289.93201 1.8403113e-38
1287.12 -120.875 -289.79501 1.8403113e-38
1293.02 -60.030399 -289.93201 1.8403113e-38
1292.45 -49.822701 -289.39301 1.8403113e-38
1295.79 11.3302 -288.591 1.8403113e-38
1300.9301 32.001598 -289.77499 1.8403113e-38
1305.7 83.883202 -289.79999 1.8403113e-38
1304.9 94.1651 -289.17099 1.8403113e-38
1310.1801 136.52299 -289.69199 1.8403113e-38
1308.9399 146.84 -288.905 1.8403113e-38
1303.4301 166.957 -286.246 1.8403113e-38
1307.52 178.21001 -287.358 1.8403113e-38
1314.29 190.078 -289.42099 1.8403113e-38
1297.91 208.054 -282.89499 1.8403113e-38
1318.3199 299.737 -287.27802 1.8403113e-38
1323.05 323.50601 -288.21301 1.8403113e-38
1315.76 332.48599 -285.276 1.8403113e-38
1313.8199 343.12201 -284.22299 1.8403113e-38
1313.59 354.35199 -283.76999 1.8403113e-38
1316.84 366.84698 -284.539 1.8403113e-38
1320.87 379.74899 -285.57501 1.8403113e-38
1325.67 393.07901 -286.875 1.8403113e-38
1325 404.51199 -286.25601 1.8403113e-38
1331.3 430.595 -287.68201 1.8403113e-38
1333.8199 443.59 -288.168 1.8403113e-38
1337.96 457.39999 -289.21701 1.8403113e-38
1340.1801 520.29498 -287.95499 1.8403113e-38
1339.24 532.50403 -287.211 1.8403113e-38
979.771 -3019.6001 -273.66101 1.8403113e-38
986.29797 -2944.8799 -273.57101 1.8403113e-38
995.66302 -2884.6201 -274.98499 1.8403113e-38
1001.63 -2815.8401 -274.88699 1.8403113e-38
1007.1 -2749.0901 -274.67499 1.8403113e-38
1014.14 -2691 -275.32001 1.8403113e-38
1015.53 -2617.8899 -273.41901 1.8403113e-38
1023.12 -2567.5701 -274.51801 1.8403113e-38
1027.76 -2510.75 -274.33099 1.8403113e-38
1030.88 -2452.1799 -273.539 1.8403113e-38
1038.05 -2407.74 -274.67599 1.8403113e-38
1039.84 -2350.3601 -273.43701 1.8403113e-38
1042.47 -2297.77 -272.66299 1.8403113e-38
1046.77 -2251.78 -272.711 1.8403113e-38
1051.46 -2208.6599 -272.99301 1.8403113e-38
1055.51 -2165.6201 -273.04599 1.8403113e-38
1057.42 -2119.05 -272.20801 1.8403113e-38
1060.9301 -2078.0601 -272.13199 1.8403113e-38
1063.05 -2035.37 -271.49799 1.8403113e-38
1070.89 -2007.22 -273.41501 1.8403113e-38
1072.67 -1966.53 -272.72501 1.8403113e-38
1076.74 -1932.22 -273.07101 1.8403113e-38
1078.64 -1894.4399 -272.517 1.8403113e-38
1084.6801 -1866.51 -273.78699 1.8403113e-38
1085.98 -1829.8101 -273.05499 1.8403113e-38
1092.05 -1803.76 -274.39899 1.8403113e-38
1095.52 -1773.37 -274.65799 1.8403113e-38
1103.12 -1751.76 -276.70099 1.8403113e-38
1102.5601 -1715.4399 -275.306 1.8403113e-38
1109.47 -1693.9 -277.10199 1.8403113e-38
1110.85 -1662.95 -276.58401 1.8403113e-38
1113.24 -1634.67 -276.521 1.8403113e-38
1117.6899 -1610.7 -277.34799 1.8403113e-38
1122.3199 -1587.62 -278.26801 1.8403113e-38
1121.6 -1556.22 -276.97198 1.8403113e-38
1130.66 -1541.59 -279.77802 1.8403113e-38
1127.63 -1507.89 -277.57199 1.8403113e-38
1134.63 -1490.8199 -279.547 1.8403113e-38
1135.5601 -1464.75 -279.02899 1.8403113e-38
1451.91 2048.0601 -278.23801 1.8403113e-38
1442.5699 2072.1599 -274.061 1.8403113e-38
1280.85 516.29401 -266.57901 1.8403113e-38
1237.3 506.39899 -251.117 1.8403113e-38
1248.3 523.91199 -254.52901 1.8403113e-38
1241.34 532.258 -251.73399 1.8403113e-38
1398.54 2037.36 -259.245 1.8403113e-38
1234.33 540.51501 -248.92101 1.8403113e-38
1238.15 554.70801 -249.84 1.8403113e-38
1229.3101 561.94299 -246.397 1.8403113e-38
1362.36 2054.6399 -245.562 1.8403113e-38
1336.99 1970.16 -239.142 1.8403113e-38
1331.54 2124.3 -232.103 1.8403113e-38
1352.77 2120.8601 -239.91 1.8403113e-38
1159.8199 534.09497 -222.12399 1.8403113e-38
1301.9399 1986.3101 -225.909 1.8403113e-38
1310.35 2127.51 -224.313 1.8403113e-38
1285.14 2122.54 -215.339 1.8403113e-38
1119.78 522.04102 -208.006 1.8403113e-38
1069.97 513.90802 -190.218 1.8403113e-38
1087.41 513.737 -196.545 1.8403113e-38
1230.51 2057.79 -197.66499 1.8403113e-38
1217.4 2075.1299 -192.34599 1.8403113e-38
1218.61 2122.8301 -191.215 1.8403113e-38
1046.08 509.72198 -181.69501 1.8403113e-38
1206.52 2143.72 -186.147 1.8403113e-38
1014.22 499.96899 -170.467 1.8403113e-38
1022.88 515.87701 -173.084 1.8403113e-38
1183.4399 2141.0601 -177.868 1.8403113e-38
1160.89 2139.05 -169.758 1.8403113e-38
1141.22 2143.1499 -162.493 1.8403113e-38
965.185 507.95801 -152.42999 1.8403113e-38
977.40503 506.242 -156.916 1.8403113e-38
984.841 501.14899 -159.77901 1.8403113e-38
1118.8199 2140.6599 -154.45599 1.8403113e-38
950.62903 507.827 -147.158 1.8403113e-38
941.62 511.392 -143.77499 1.8403113e-38
943.52301 522.78198 -144.091 1.8403113e-38
944.521 533.66998 -144.095 1.8403113e-38
1098.83 2143.4199 -147.118 1.8403113e-38
931.53101 534.13501 -139.371 1.8403113e-38
920.91199 546.39801 -135.118 1.8403113e-38
932.36902 545.01001 -139.317 1.8403113e-38
916.28998 553.047 -133.224 1.8403113e-38
1056.7 2142.79 -131.869 1.8403113e-38
1077.73 2143.22 -139.478 1.8403113e-38
886.07898 538.90399 -122.738 1.8403113e-38
1035.74 2142.1299 -124.293 1.8403113e-38
853.16699 521.77899 -111.371 1.8403113e-38
867.08301 553.33899 -115.378 1.8403113e-38
856.216 564.30402 -111.079 1.8403113e-38
864.59302 561.40002 -114.211 1.8403113e-38
896.28198 812.927 -117.43 1.8403113e-38
878.90399 821.06299 -110.864 1.8403113e-38
895.07898 826.11401 -116.561 1.8403113e-38
1015.21 2142.1799 -116.848 1.8403113e-38
843.55603 523.435 -107.833 1.8403113e-38
846.40002 565.79401 -107.472 1.8403113e-38
858.56702 754.37799 -105.684 1.8403113e-38
871.414 826.51801 -107.969 1.8403113e-38
853.44702 848.69598 -100.727 1.8403113e-38
877.78802 849.66901 -109.519 1.8403113e-38
866.48602 850.42902 -105.397 1.8403113e-38
802.71399 545.78802 -92.293602 1.8403113e-38
804.42798 557.375 -92.534203 1.8403113e-38
820.16302 552.026 -98.413597 1.8403113e-38
801.18298 574.61401 -90.791397 1.8403113e-38
822.77002 585.28101 -98.265701 1.8403113e-38
824.69397 614.06598 -98.016899 1.8403113e-38
822.992 628.99799 -96.909203 1.8403113e-38
817.01501 634.01898 -94.577698 1.8403113e-38
815.65698 643.979 -93.758102 1.8403113e-38
814.84198 654.68201 -93.110603 1.8403113e-38
815.85699 667.599 -93.054001 1.8403113e-38
813.46997 676.91901 -91.8825 1.8403113e-38
831.5 709.87701 -97.334801 1.8403113e-38
844.39203 867.74298 -96.819397 1.8403113e-38
851.60797 861.77899 -99.630898 1.8403113e-38
805.64001 829.659 -84.023903 1.8403113e-38
812.83502 855.32098 -85.788498 1.8403113e-38
811.72601 886.02399 -84.377502 1.8403113e-38
822.45203 885.224 -88.291901 1.8403113e-38
816.87 910.47498 -85.438499 1.8403113e-38
820.04102 932.60999 -85.860603 1.8403113e-38
820.23297 950.71899 -85.334801 1.8403113e-38
827.53699 980.58698 -87.000801 1.8403113e-38
748.91602 1476.12 -42.214901 1.8403113e-38
694.36603 1400.3101 -24.933001 1.8403113e-38
707.99701 1401.4 -29.8382 1.8403113e-38
665.69897 1392.99 -14.7825 1.8403113e-38
679.50299 1395.3199 -19.7096 1.8403113e-38
637.71399 1385.99 -4.8681302 1.8403113e-38
626.47302 1390.86 -0.63375199 1.8403113e-38
651.96802 1390.52 -9.8864403 1.8403113e-38
600.82098 1389.72 8.6272802 1.8403113e-38
612.92102 1387.96 4.1836801 1.8403113e-38
573.25403 1380.36 18.312201 1.8403113e-38
586.85199 1384.63 13.5237 1.8403113e-38
548.05603 1378.16 27.373699 1.8403113e-38
560.005 1376.91 23.0014 1.8403113e-38
523.03699 1375.45 36.354 1.8403113e-38
534.935 1374.4399 32.0079 1.8403113e-38
297.04999 -786.80298 47.201401 1.8403113e-38
299.72601 -760.10199 47.108799 1.8403113e-38
328.43799 -546.52698 43.720901 1.8403113e-38
320.35001 -532.34998 47.118698 1.8403113e-38
485.55499 1369 49.728298 1.8403113e-38
497.35699 1368.35 45.428699 1.8403113e-38
510.047 1371.48 40.931801 1.8403113e-38
286.30402 -777.35852 51.406952 1.8403113e-38
281.996 -599.39801 58.817799 1.8403113e-38
309.51501 -524.01898 51.320202 1.8403113e-38
288.23599 -503.694 59.701401 1.8403113e-38
296.96301 -505.707 56.472 1.8403113e-38
300.095 -500.81799 55.497299 1.8403113e-38
291.61099 -499.84601 58.604698 1.8403113e-38
306.371 -491.94901 53.514 1.8403113e-38
460.29199 1361.13 58.626801 1.8403113e-38
472.39301 1362.6801 54.291599 1.8403113e-38
263.064 -648.74402 64.058403 1.8403113e-38
252.71001 -596.784 69.519203 1.8403113e-38
274.96201 -523.74103 63.854099 1.8403113e-38
276.55151 -495.52649 64.205254 1.8403113e-38
283.37299 -499.68399 61.5961 1.8403113e-38
436.05399 1356.6899 67.267097 1.8403113e-38
447.33801 1354.54 63.106098 1.8403113e-38
232.604 -580.83301 77.331703 1.8403113e-38
227.496 -572.23499 79.465897 1.8403113e-38
237.047 -578.42603 75.800301 1.8403113e-38
243.72549 -575.73096 73.467957 1.8403113e-38
400.76801 1353.6 79.955902 1.8403113e-38
413.27499 1359.6801 75.622299 1.8403113e-38
424.58701 1357.74 71.458199 1.8403113e-38
223.41499 -581.53802 80.639198 1.8403113e-38
216.347 -577.45752 83.335602 1.8403113e-38
209.105 -561.29999 86.491798 1.8403113e-38
204.54601 -553.46198 88.4021 1.8403113e-38
377.27701 1349.98 88.352303 1.8403113e-38
388.51401 1348.38 84.226196 1.8403113e-38
176.53351 -543.96802 98.86795 1.8403113e-38
185.091 -544.64551 95.743752 1.8403113e-38
193.67249 -543.66553 92.665344 1.8403113e-38
200.069 -539.58301 90.481003 1.8403113e-38
353.61301 1342.9301 96.698303 1.8403113e-38
366.02499 1351.48 92.479897 1.8403113e-38
148.327 -546.77698 109 1.8403113e-38
155.08749 -543.32397 106.663 1.8403113e-38
166.02901 -540.03198 102.805 1.8403113e-38
170.18201 -542.237 101.227 1.8403113e-38
161.912 -537.78998 104.371 1.8403113e-38
319.72501 1343.47 109 1.8403113e-38
331.01501 1343.4 104.905 1.8403113e-38
342.73801 1347.2 100.78 1.8403113e-38
