# .PCD v0.7 - Point Cloud Data file format
VERSION 0.7
FIELDS x y z rgb
SIZE 4 4 4 4
TYPE F F F F
COUNT 1 1 1 1
WIDTH 356
HEIGHT 1
VIEWPOINT 0 0 0 1 0 0 0
POINTS 356
DATA ascii
2560.98 387.802 -441.078 1.8403113e-38
2581.8501 460.69101 -441.43701 1.8403113e-38
2606.9099 540.42401 -442.61401 1.8403113e-38
2616.8601 580.47498 -442.27899 1.8403113e-38
2628.3301 622.73901 -442.26501 1.8403113e-38
2640.4199 666.76599 -442.29999 1.8403113e-38
2649.8999 710.32397 -441.466 1.8403113e-38
2660.72 756.24103 -440.87201 1.8403113e-38
2677.3701 808.22601 -441.75 1.8403113e-38
2688.95 858.01001 -441.056 1.8403113e-38
2701.5701 910.38898 -440.48001 1.8403113e-38
2810.6399 1302.26 -441.311 1.8403113e-38
2041.09 -1407.14 -430.13599 1.8403113e-38
2057.75 -1350.8101 -430.60199 1.8403113e-38
2092.6899 -1216.54 -430.03299 1.8403113e-38
2103.1899 -1195.36 -431.694 1.8403113e-38
2113.1899 -1143.61 -430.25699 1.8403113e-38
2125.8799 -1096.7 -430.228 1.8403113e-38
2128.8799 -1087.42 -430.39301 1.8403113e-38
2137.6499 -1078.51 -432.62299 1.8403113e-38
2150.53 -1034.02 -432.892 1.8403113e-38
2160.8501 -989.05402 -432.21399 1.8403113e-38
2168.4299 -968.81201 -432.94 1.8403113e-38
2170.1299 -944.84003 -431.245 1.8403113e-38
2176.0901 -924.09601 -431.35599 1.8403113e-38
2176.1201 -913.27502 -430.33099 1.8403113e-38
2183.27 -904.33801 -431.98801 1.8403113e-38
2184.3999 -881.15802 -430.17001 1.8403113e-38
2193.27 -862.79498 -431.52701 1.8403113e-38
2193.5801 -852.33502 -430.63599 1.8403113e-38
2202.6499 -844.74701 -433.09698 1.8403113e-38
2200.8701 -820.89203 -430.19 1.8403113e-38
2205.03 -812.505 -430.84799 1.8403113e-38
2214.6299 -805.245 -433.52499 1.8403113e-38
2209.3701 -792.13898 -430.42599 1.8403113e-38
2221.3601 -786.03802 -434.05499 1.8403113e-38
2215.8999 -772.96997 -430.88699 1.8403113e-38
2219.2 -762.88501 -431.07901 1.8403113e-38
2226.0701 -744.05798 -431.69299 1.8403113e-38
2229.1499 -723.716 -430.82901 1.8403113e-38
2245.0801 -666.008 -430.90399 1.8403113e-38
2252.1201 -647.43201 -431.60101 1.8403113e-38
2260.6599 -629.26703 -432.86401 1.8403113e-38
2264.3999 -609.63098 -432.298 1.8403113e-38
2262.5801 -598.58099 -430.603 1.8403113e-38
2272.3501 -591.16602 -433.32501 1.8403113e-38
2271.28 -580.276 -431.91 1.8403113e-38
2273.6101 -570.96503 -431.83801 1.8403113e-38
2273.3 -560.26599 -430.70499 1.8403113e-38
2280.03 -552.05103 -432.284 1.8403113e-38
2283.25 -542.047 -432.45599 1.8403113e-38
2286.1499 -532.99799 -432.61099 1.8403113e-38
2287.3799 -522.48199 -432.03699 1.8403113e-38
2300.29 -515.34497 -435.88599 1.8403113e-38
2291.1899 -502.85501 -431.49899 1.8403113e-38
2299.3201 -494.80301 -433.58401 1.8403113e-38
2296.54 -483.45999 -431.522 1.8403113e-38
2482.5 159.013 -435.39401 1.8403113e-38
2480.47 174.334 -433.216 1.8403113e-38
2490.23 187.78 -435.358 1.8403113e-38
2493.25 205.483 -434.72501 1.8403113e-38
2498.28 217.319 -435.35999 1.8403113e-38
2508.9099 238.75101 -437.04501 1.8403113e-38
2512.77 250.40601 -437.285 1.8403113e-38
2512.48 267.51999 -435.547 1.8403113e-38
2526.5601 284.151 -438.901 1.8403113e-38
2518.97 298.21899 -434.88901 1.8403113e-38
2533.5601 315.57501 -438.35501 1.8403113e-38
2530.01 331.88699 -435.547 1.8403113e-38
2545.0801 350.03699 -439.10501 1.8403113e-38
2546.3301 369.23599 -437.70801 1.8403113e-38
2550.78 401.32999 -436.20099 1.8403113e-38
2565.04 420.202 -439.40601 1.8403113e-38
2568.04 441.401 -438.431 1.8403113e-38
2577.71 478.33499 -438.29599 1.8403113e-38
2584.4399 493.97101 -439.16501 1.8403113e-38
2585.75 515.30499 -437.582 1.8403113e-38
2604.4299 560.086 -439.862 1.8403113e-38
2615.5801 601.45502 -439.82001 1.8403113e-38
2627.3799 644.55499 -439.84299 1.8403113e-38
2636.5901 687.18402 -439.004 1.8403113e-38
2652.6699 736.20001 -439.961 1.8403113e-38
2664.45 783.67401 -439.561 1.8403113e-38
2673.5801 830.62701 -438.276 1.8403113e-38
2686.1201 881.927 -437.77499 1.8403113e-38
2698.1499 934.60999 -436.96301 1.8403113e-38
2709.21 960.315 -438.388 1.8403113e-38
2705.95 985.44 -434.84 1.8403113e-38
2720.75 1015.42 -437.17099 1.8403113e-38
2713.23 1037.54 -432.41699 1.8403113e-38
2733.0801 1073.28 -435.96799 1.8403113e-38
2742.8101 1112.51 -435.634 1.8403113e-38
2764.5 1151.6801 -439.50601 1.8403113e-38
2768.96 1187.51 -437.647 1.8403113e-38
2756.8201 1194.79 -432.68701 1.8403113e-38
2816.5701 1342.78 -439.51801 1.8403113e-38
2824.27 1372.54 -439.379 1.8403113e-38
2805.78 1388.23 -431.384 1.8403113e-38
2992.6101 2024.63 -436.14301 1.8403113e-38
2986.3201 2048.8799 -431.61301 1.8403113e-38
1849.9 -2049.4099 -424.40799 1.8403113e-38
1852.13 -2019.75 -422.353 1.8403113e-38
1864.36 -1998.39 -424.60699 1.8403113e-38
1866.84 -1971.51 -422.90799 1.8403113e-38
1876.98 -1946.52 -424.07901 1.8403113e-38
1880.17 -1923.3101 -422.98001 1.8403113e-38
1893.3199 -1907.39 -426.078 1.8403113e-38
1892.49 -1876.09 -422.793 1.8403113e-38
1906.65 -1863.74 -426.58301 1.8403113e-38
1905.0601 -1832.52 -423.04099 1.8403113e-38
1918.34 -1819.25 -426.436 1.8403113e-38
1915.58 -1787.26 -422.40799 1.8403113e-38
1928.37 -1773.98 -425.62799 1.8403113e-38
1928.24 -1749.12 -423.20599 1.8403113e-38
1944.49 -1743.64 -428.38901 1.8403113e-38
1940.3 -1711.88 -423.88 1.8403113e-38
1952.67 -1699.42 -427.03201 1.8403113e-38
1951.36 -1674.6801 -424.207 1.8403113e-38
1964.24 -1663.9 -427.69901 1.8403113e-38
1960.95 -1636.7 -423.94199 1.8403113e-38
1971.05 -1621.6801 -426.056 1.8403113e-38
1969.52 -1598.8199 -423.32901 1.8403113e-38
1984.0699 -1592.1899 -427.806 1.8403113e-38
1982.05 -1569.37 -424.914 1.8403113e-38
1991.3 -1554.4 -426.733 1.8403113e-38
1988.21 -1530.88 -423.39801 1.8403113e-38
1997.53 -1516.78 -425.32101 1.8403113e-38
1995.45 -1495.8199 -422.58701 1.8403113e-38
2008.6 -1488.21 -426.479 1.8403113e-38
2008.78 -1471.3 -424.92401 1.8403113e-38
2017.89 -1458.04 -426.85599 1.8403113e-38
2018.23 -1441.95 -425.436 1.8403113e-38
2027.55 -1429.49 -427.51599 1.8403113e-38
2027.53 -1413.41 -425.97198 1.8403113e-38
2036.13 -1384.91 -426.26901 1.8403113e-38
2044.78 -1372.48 -428.11899 1.8403113e-38
2044.05 -1356.46 -426.32901 1.8403113e-38
2051.8899 -1328.83 -426.439 1.8403113e-38
2063.55 -1320.89 -429.77701 1.8403113e-38
2059.0701 -1301.25 -426.32501 1.8403113e-38
2068.6201 -1291.1 -428.70801 1.8403113e-38
2064.3401 -1272.3101 -425.409 1.8403113e-38
2076.1399 -1265.04 -428.85699 1.8403113e-38
2074.05 -1249.1801 -426.60901 1.8403113e-38
2081.1201 -1236.9301 -427.918 1.8403113e-38
2081.3101 -1223.9301 -426.73999 1.8403113e-38
2088.6599 -1199.4 -426.97601 1.8403113e-38
2101.5601 -1180.95 -429.742 1.8403113e-38
2105.75 -1166.77 -429.85999 1.8403113e-38
2102.4199 -1151.12 -427.19299 1.8403113e-38
2110.96 -1129.3 -428.10699 1.8403113e-38
2118.02 -1118.54 -429.556 1.8403113e-38
2117.6399 -1106.1801 -428.23999 1.8403113e-38
2130.99 -1061.26 -428.63501 1.8403113e-38
2137.3201 -1050.58 -429.83499 1.8403113e-38
2139.95 -1041.1801 -429.85999 1.8403113e-38
2145.51 -1018.72 -429.66599 1.8403113e-38
2148.3501 -1005.82 -429.42801 1.8403113e-38
2152.1499 -997.42297 -429.95901 1.8403113e-38
2154.5 -973.38501 -428.48801 1.8403113e-38
2159.47 -951.62598 -428.15302 1.8403113e-38
2163.22 -929.39203 -427.34399 1.8403113e-38
2179.8899 -891.51898 -429.57501 1.8403113e-38
2183.23 -869.83002 -428.67599 1.8403113e-38
2196.98 -831.10999 -429.80301 1.8403113e-38
2217.8 -751.83301 -429.53299 1.8403113e-38
2221.9099 -731.87701 -429.06799 1.8403113e-38
2223.04 -710.88501 -427.457 1.8403113e-38
2231.8601 -703.414 -429.83899 1.8403113e-38
2233.47 -693.63 -429.46899 1.8403113e-38
2236.8501 -684.12299 -429.74899 1.8403113e-38
2238.3201 -674.24902 -429.319 1.8403113e-38
2238.3799 -653.341 -427.341 1.8403113e-38
2247.9299 -635.64502 -429.00201 1.8403113e-38
2253.5901 -616.66498 -429.177 1.8403113e-38
2278.46 -471.522 -424.03201 1.8403113e-38
2746.05 1216.2 -426.85599 1.8403113e-38
2784.97 1387.49 -424.146 1.8403113e-38
2260.5701 -458.34698 -416.487 1.8403113e-38
2759.77 1395.45 -414.535 1.8403113e-38
2744.96 1400.77 -408.828 1.8403113e-38
2720.4099 1408.97 -399.41901 1.8403113e-38
2704.3101 1412.3199 -393.44699 1.8403113e-38
2179.6899 -439.22699 -386.255 1.8403113e-38
2680.3899 1420.8 -384.23499 1.8403113e-38
2683.78 1447.36 -382.88501 1.8403113e-38
2699.3999 1504.84 -382.87601 1.8403113e-38
2712.3301 1544.95 -383.578 1.8403113e-38
2726.4299 1603.28 -382.95401 1.8403113e-38
2736.29 1641.65 -382.74799 1.8403113e-38
180.61 -7650.1299 -373.733 1.8403113e-38
2145.5601 -425.40201 -372.95001 1.8403113e-38
2132.47 -416.345 -367.48499 1.8403113e-38
2124.3 -406.13901 -363.63901 1.8403113e-38
2125.0601 -398.888 -363.215 1.8403113e-38
2264 68.053802 -367.358 1.8403113e-38
110.02 -7688.54 -352.616 1.8403113e-38
2106.0801 -380.95001 -354.832 1.8403113e-38
2115.79 -388.76901 -358.992 1.8403113e-38
2105.1001 -371.642 -353.60001 1.8403113e-38
2210.6699 -10.6731 -356.15799 1.8403113e-38
2208.3999 -4.65626 -354.78601 1.8403113e-38
2203.26 6.2747502 -351.93399 1.8403113e-38
1719.97 -1732.91 -348.51501 1.8403113e-38
2095.22 -364.203 -349.418 1.8403113e-38
2085.6299 -354.58401 -345.13101 1.8403113e-38
2079.3601 -347.73199 -342.272 1.8403113e-38
2079.04 -338.60599 -341.289 1.8403113e-38
2160.79 -38.2645 -341.27802 1.8403113e-38
2183.8301 18.882 -343.905 1.8403113e-38
2198.1599 11.2064 -349.67099 1.8403113e-38
2202.99 32.323898 -349.349 1.8403113e-38
55.5844 -7661.2598 -330.89001 1.8403113e-38
2065.0901 -331.90701 -335.74701 1.8403113e-38
2060.8601 -322.828 -333.396 1.8403113e-38
2065.6299 -316.59299 -334.474 1.8403113e-38
2061.28 -307.51401 -332.078 1.8403113e-38
2132.5801 -52.816601 -332.76099 1.8403113e-38
2049.8799 -301.62 -327.51001 1.8403113e-38
2047.29 -292.63599 -325.73999 1.8403113e-38
2052.75 -286.495 -327.073 1.8403113e-38
2047.985 -274.6265 -324.263 1.8403113e-38
2053.46 -262.11801 -324.992 1.8403113e-38
2040.76 -257.26501 -320.06799 1.8403113e-38
2047.22 -247.468 -321.39801 1.8403113e-38
2087.1399 -99.350899 -321.25299 1.8403113e-38
2090.1101 -92.9487 -321.68399 1.8403113e-38
2105.97 -74.752251 -325.51599 1.8403113e-38
2040.0699 -242.452 -318.40601 1.8403113e-38
2025.66 -234.62 -312.599 1.8403113e-38
2040.0601 -227.556 -316.98099 1.8403113e-38
2047.255 -214.461 -318.25549 1.8403113e-38
2049.6001 -201.726 -317.85999 1.8403113e-38
2044.9399 -196.89999 -315.76401 1.8403113e-38
2038.64 -188.20399 -312.71701 1.8403113e-38
2042.3101 -182.211 -313.435 1.8403113e-38
2053.6499 -170.386 -316.285 1.8403113e-38
2048.78 -165.842 -314.14099 1.8403113e-38
2058.0701 -154.02299 -316.27301 1.8403113e-38
2054.02 -149.405 -314.41 1.8403113e-38
2057.1201 -133.166 -313.944 1.8403113e-38
2064.0601 -137.067 -316.75601 1.8403113e-38
2049.3501 -124.663 -310.405 1.8403113e-38
2078.4399 -112.249 -319.431 1.8403113e-38
-8.8525 -7657.0601 -307.85901 1.8403113e-38
1641.6899 -1529.1899 -301.54401 1.8403113e-38
-65.626503 -7645.4199 -286.80801 1.8403113e-38
765.47101 -4569.25 -284.526 1.8403113e-38
2289.1899 1157.61 -272.01901 1.8403113e-38
2309.6699 1168.16 -278.20001 1.8403113e-38
-131.27299 -7646.9902 -263.90399 1.8403113e-38
729.70898 -4540 -269.17001 1.8403113e-38
1566.95 -1410.27 -263.92599 1.8403113e-38
1559.3 -1405.54 -260.78601 1.8403113e-38
1578.6 -1402.53 -267.27701 1.8403113e-38
1583.34 -1397.7 -268.479 1.8403113e-38
2257 1146.39 -261.78799 1.8403113e-38
635.56598 -4714.6001 -252.80499 1.8403113e-38
697.72198 -4544.4702 -258.36401 1.8403113e-38
1537.37 -1398.71 -252.431 1.8403113e-38
1543.71 -1399.9301 -254.77299 1.8403113e-38
2239.25 1138.41 -256.31699 1.8403113e-38
-188.065 -7635.1899 -242.83099 1.8403113e-38
1504.45 -1400.58 -241.048 1.8403113e-38
1519.78 -1406.63 -247.01199 1.8403113e-38
1522.74 -1395.71 -247.005 1.8403113e-38
1486.33 -1406.0699 -235.211 1.8403113e-38
1499.24 -1402.76 -239.42799 1.8403113e-38
1478.29 -1395.5699 -231.381 1.8403113e-38
1440.04 -1500.87 -228.019 1.8403113e-38
1419.11 -1497.3199 -220.328 1.8403113e-38
1425.26 -1497.86 -222.53999 1.8403113e-38
1443.8 -1487.6 -228.071 1.8403113e-38
1446.13 -1425.45 -222.948 1.8403113e-38
1449.48 -1414.12 -223.03999 1.8403113e-38
1463.12 -1414.01 -227.819 1.8403113e-38
1466.04 -1401.6 -227.65601 1.8403113e-38
-253.80099 -7635.6099 -219.786 1.8403113e-38
1398.1 -1491.39 -212.38499 1.8403113e-38
1404.71 -1496.0601 -215.153 1.8403113e-38
1364.4 -1494.22 -200.82001 1.8403113e-38
1378.34 -1492.9 -205.59 1.8403113e-38
1383.8 -1489.9301 -207.222 1.8403113e-38
2090.1499 1117.58 -205.946 1.8403113e-38
2102.1101 1119.96 -209.91901 1.8403113e-38
2238.8701 1704.9 -202.015 1.8403113e-38
-310.83801 -7624.6201 -198.70399 1.8403113e-38
1338.71 -1492.86 -191.66901 1.8403113e-38
1358.71 -1495.04 -198.899 1.8403113e-38
1343.97 -1488.29 -193.077 1.8403113e-38
1958.54 769.63 -192.998 1.8403113e-38
1966.47 770.367 -195.713 1.8403113e-38
2050.3701 1103.83 -193.28999 1.8403113e-38
2061.5901 1105.8 -197.04201 1.8403113e-38
2227.76 1713.01 -197.334 1.8403113e-38
1319 -1492.28 -184.689 1.8403113e-38
1324.27 -1487.89 -186.123 1.8403113e-38
1938.98 768.19598 -186.265 1.8403113e-38
1933.84 771.33002 -184.16 1.8403113e-38
2015.11 1096.05 -181.65199 1.8403113e-38
2029.5699 1104.49 -185.924 1.8403113e-38
2193.6799 1728.08 -183.92599 1.8403113e-38
2209.25 1729.27 -189.28101 1.8403113e-38
-377.09 -7625.8398 -175.55499 1.8403113e-38
1279.86 -1492 -170.92 1.8403113e-38
1285.71 -1498.89 -173.633 1.8403113e-38
1299.63 -1496.29 -178.271 1.8403113e-38
1305.09 -1494.0601 -179.97701 1.8403113e-38
1926.0601 788.07098 -179.827 1.8403113e-38
1928.11 802.90698 -179.12801 1.8403113e-38
1984.53 1095.35 -170.98 1.8403113e-38
1994.5 1096.3101 -174.39101 1.8403113e-38
2172.4399 1738.62 -175.459 1.8403113e-38
2160.5901 1745.22 -170.66701 1.8403113e-38
1260.4 -1492.3101 -164.112 1.8403113e-38
1265.76 -1488.47 -165.62801 1.8403113e-38
1959.91 1087.29 -163.106 1.8403113e-38
1970.03 1125.0601 -163.04601 1.8403113e-38
2138.78 1754.54 -162.117 1.8403113e-38
-436.67999 -7625.3799 -154.58299 1.8403113e-38
1226.95 -1488.38 -151.991 1.8403113e-38
1243.62 -1485.9551 -157.6115 1.8403113e-38
2126.8 1760.84 -157.30701 1.8403113e-38
1162.53 -1610.02 -141.00101 1.8403113e-38
1178.62 -1585.5699 -144.313 1.8403113e-38
1185.49 -1565.53 -144.808 1.8403113e-38
1202.87 -1465.2 -141.31799 1.8403113e-38
1221.78 -1469.95 -148.412 1.8403113e-38
1208.16 -1457.92 -142.481 1.8403113e-38
2105.24 1770.75 -148.787 1.8403113e-38
2115.0901 1830.36 -146.54601 1.8403113e-38
2155.8799 2039.59 -140.86301 1.8403113e-38
2175.6599 2047.01 -147.103 1.8403113e-38
-499.67899 -7610.8301 -131.067 1.8403113e-38
1132.04 -1645.8199 -133.715 1.8403113e-38
1139.35 -1636.17 -135.358 1.8403113e-38
1156.0699 -1611.9301 -138.91299 1.8403113e-38
2129.79 2044.09 -131.272 1.8403113e-38
1120.05 -1606.1899 -125.713 1.8403113e-38
1115.27 -1589.8101 -122.47 1.8403113e-38
2111.99 2040.86 -125.328 1.8403113e-38
2089.02 2053.3799 -116.066 1.8403113e-38
2043.62 2048.6299 -100.576 1.8403113e-38
2068.6201 2042.17 -109.973 1.8403113e-38
-245.62399 -6334.23 -98.216599 1.8403113e-38
2025.75 2043.5601 -94.785004 1.8403113e-38
1995.8 2034.39 -85.145401 1.8403113e-38
-245.228 -6112.7402 -77.176598 1.8403113e-38
1953.95 2036.33 -70.260803 1.8403113e-38
1978.8101 2030.74 -79.5271 1.8403113e-38
-248.842 -5947.71 -60.126202 1.8403113e-38
1940.8 2044.72 -64.839699 1.8403113e-38
1899.52 2047.41 -50.088799 1.8403113e-38
1915.84 2049.9399 -55.5751 1.8403113e-38
-248.478 -5751.1201 -41.456001 1.8403113e-38
1872.73 2045.48 -40.862499 1.8403113e-38
