# .PCD v0.7 - Point Cloud Data file format
VERSION 0.7
FIELDS x y z rgb
SIZE 4 4 4 4
TYPE F F F F
COUNT 1 1 1 1
WIDTH 344
HEIGHT 1
VIEWPOINT 0 0 0 1 0 0 0
POINTS 344
DATA ascii
1868.74 -2397.0601 -420.08301 1.8403113e-38
1898.99 -2303.02 -421.681 1.8403113e-38
1905.92 -2267.8701 -420.73999 1.8403113e-38
1915.8199 -2238.8899 -421.43201 1.8403113e-38
1925.1899 -2215.04 -422.435 1.8403113e-38
1931 -2175.75 -420.70499 1.8403113e-38
1938.35 -2148.1699 -420.63501 1.8403113e-38
1945.85 -2117.3601 -420.314 1.8403113e-38
1954.27 -2095.3601 -421.159 1.8403113e-38
1969.99 -2046.26 -421.966 1.8403113e-38
1975.14 -2013.72 -420.651 1.8403113e-38
1983.59 -1995.36 -421.85501 1.8403113e-38
1988.24 -1963.8199 -420.45901 1.8403113e-38
1995.35 -1943.63 -421.01801 1.8403113e-38
2002.87 -1921.22 -421.51001 1.8403113e-38
2007.5 -1896.53 -420.76599 1.8403113e-38
2017.48 -1881.3199 -422.80701 1.8403113e-38
2018.71 -1850.4301 -420.27499 1.8403113e-38
2027.35 -1833.42 -421.677 1.8403113e-38
2032.3 -1812.38 -421.396 1.8403113e-38
2037.9399 -1790.09 -421.23801 1.8403113e-38
2041.88 -1768.22 -420.51999 1.8403113e-38
2056.3799 -1736.33 -422.54999 1.8403113e-38
2061.3101 -1715.01 -422.237 1.8403113e-38
2063.23 -1691.52 -420.65601 1.8403113e-38
2073.05 -1654.58 -420.556 1.8403113e-38
2085.74 -1624.4399 -422.11899 1.8403113e-38
2091.48 -1607.52 -422.51099 1.8403113e-38
2097.6699 -1594.27 -423.41199 1.8403113e-38
2104.23 -1556.71 -422.11401 1.8403113e-38
2106.49 -1535.8 -420.89999 1.8403113e-38
2109.8 -1519.34 -420.48001 1.8403113e-38
2115.77 -1505 -421.20099 1.8403113e-38
2124.6001 -1497.37 -423.56699 1.8403113e-38
2125.9099 -1476.63 -422.03799 1.8403113e-38
2130.6399 -1463.39 -422.427 1.8403113e-38
2135.3501 -1448.28 -422.63199 1.8403113e-38
2138.6299 -1433.48 -422.36099 1.8403113e-38
2144.6799 -1420.74 -423.263 1.8403113e-38
2147.6101 -1405.96 -422.87299 1.8403113e-38
2151.5901 -1390.9301 -422.828 1.8403113e-38
2154.1599 -1376.2 -422.31601 1.8403113e-38
2158.96 -1362.73 -422.70999 1.8403113e-38
2162.3899 -1349.53 -422.64801 1.8403113e-38
2165.6499 -1334.61 -422.36099 1.8403113e-38
2171.8501 -1325.11 -423.62399 1.8403113e-38
2172.9199 -1308.05 -422.362 1.8403113e-38
2174.46 -1293.46 -421.505 1.8403113e-38
2181.46 -1283.6899 -423.02499 1.8403113e-38
2182.7 -1269.14 -422.064 1.8403113e-38
2188.1699 -1257.9301 -422.90799 1.8403113e-38
2190.3999 -1244.83 -422.43301 1.8403113e-38
2198.24 -1236.39 -424.37701 1.8403113e-38
2200.21 -1223.29 -423.811 1.8403113e-38
2207.2 -1214.1 -425.38199 1.8403113e-38
2202.8201 -1194.97 -422.00699 1.8403113e-38
2205.45 -1181.8 -421.668 1.8403113e-38
2207.5 -1169.49 -421.20499 1.8403113e-38
2215.3799 -1161.6 -423.21701 1.8403113e-38
2222.79 -1154.45 -425.13 1.8403113e-38
2222.8 -1139.4 -423.69101 1.8403113e-38
2222.95 -1125.83 -422.44 1.8403113e-38
2228.3301 -1115.9399 -423.38101 1.8403113e-38
2232.52 -1106.16 -423.91299 1.8403113e-38
2236.26 -1095 -424.15399 1.8403113e-38
2239.53 -1084.5699 -424.30099 1.8403113e-38
2242.3 -1072.83 -424.147 1.8403113e-38
2244.6101 -1061.8 -423.89999 1.8403113e-38
2247.1299 -1050.1 -423.664 1.8403113e-38
2249.97 -1039.67 -423.659 1.8403113e-38
2252.25 -1028.02 -423.341 1.8403113e-38
2257.1599 -1019.28 -424.22601 1.8403113e-38
2259.99 -1008.2 -424.15399 1.8403113e-38
2264.74 -999.39502 -424.97601 1.8403113e-38
2268.8999 -989.41199 -425.48001 1.8403113e-38
2268.03 -976.79401 -423.96399 1.8403113e-38
2273.55 -967.88501 -425.048 1.8403113e-38
2270.8601 -954.29602 -422.79901 1.8403113e-38
2279.3601 -947.42798 -425.125 1.8403113e-38
2284.4099 -938.96698 -426.086 1.8403113e-38
2286.3999 -927.96198 -425.72601 1.8403113e-38
2288.8701 -917.961 -425.63501 1.8403113e-38
2290.6399 -906.99701 -425.203 1.8403113e-38
2294.5601 -897.94098 -425.70901 1.8403113e-38
2303.49 -891.203 -428.20099 1.8403113e-38
2303.99 -880.19897 -427.319 1.8403113e-38
2312.8201 -873.31799 -429.75699 1.8403113e-38
2308.98 -860.08197 -427.138 1.8403113e-38
2313.49 -850.92297 -427.84399 1.8403113e-38
2313.5901 -839.96503 -426.828 1.8403113e-38
2312.8701 -828.26898 -425.45401 1.8403113e-38
2315.3 -818.62097 -425.379 1.8403113e-38
2324.0049 -806.19153 -427.24249 1.8403113e-38
2319.71 -787.83899 -423.97501 1.8403113e-38
2322.6499 -778.552 -424.116 1.8403113e-38
2319.55 -766.38397 -421.85999 1.8403113e-38
2364.48 -587.37 -420.45401 1.8403113e-38
2382.26 -581.508 -426.134 1.8403113e-38
2373.3999 -569.54401 -421.87399 1.8403113e-38
2386.49 -562.39099 -425.78299 1.8403113e-38
2385.73 -552.20001 -424.54001 1.8403113e-38
2388.55 -542.86603 -424.634 1.8403113e-38
2397.8201 -534.487 -427.082 1.8403113e-38
2392.1499 -523.65997 -424.05099 1.8403113e-38
2398.49 -514.66302 -425.41501 1.8403113e-38
2401 -505.224 -425.39099 1.8403113e-38
2398.8301 -494.892 -423.63599 1.8403113e-38
2403.97 -485.815 -424.57199 1.8403113e-38
2404.4299 -475.84698 -423.77701 1.8403113e-38
2408.5 -466.57001 -424.31299 1.8403113e-38
2654.48 416.048 -425.96899 1.8403113e-38
2660.99 434.54401 -426.479 1.8403113e-38
2662.1699 451.659 -425.25101 1.8403113e-38
2664.98 468.366 -424.634 1.8403113e-38
2678.0901 493.483 -426.82599 1.8403113e-38
2682.1101 511.53 -426.505 1.8403113e-38
2689.79 533.94 -427.05099 1.8403113e-38
2699.02 556.06403 -428.17001 1.8403113e-38
2704.5701 577.78998 -428.03299 1.8403113e-38
2705.3 594.72998 -426.66299 1.8403113e-38
2712.76 618.44299 -427.00699 1.8403113e-38
2717.8101 639.00897 -426.80499 1.8403113e-38
2727.8701 665.42603 -427.80099 1.8403113e-38
2740.97 692.78302 -429.77701 1.8403113e-38
2738.74 710.828 -427.26001 1.8403113e-38
2747.3701 735.63 -427.91101 1.8403113e-38
2748.53 756.883 -426.27701 1.8403113e-38
2763.4299 787.58002 -428.56299 1.8403113e-38
2767.05 811.64099 -427.52399 1.8403113e-38
2775.2 837.875 -427.867 1.8403113e-38
2779.71 863.54102 -426.98901 1.8403113e-38
2781.28 885.03802 -425.478 1.8403113e-38
2790.3601 915.54797 -425.73599 1.8403113e-38
2803.78 948.44 -427.29099 1.8403113e-38
2802.6201 970.896 -424.73001 1.8403113e-38
2804.46 994.27301 -423.13101 1.8403113e-38
2809.9199 1023.64 -422.23001 1.8403113e-38
2824.6299 1060.2 -423.88599 1.8403113e-38
2825.77 1086.61 -421.75201 1.8403113e-38
2841.3701 1151.89 -420.96399 1.8403113e-38
2860.4399 1195.92 -423.43201 1.8403113e-38
2877.76 1241.58 -425.13101 1.8403113e-38
2885.45 1275.6899 -424.55801 1.8403113e-38
2896.9099 1317.04 -424.61301 1.8403113e-38
1837.54 -2498.1499 -418.832 1.8403113e-38
1845.52 -2454.3999 -417.435 1.8403113e-38
1856.97 -2420.73 -418.224 1.8403113e-38
1876.75 -2353.8301 -418.74799 1.8403113e-38
1885.1 -2320.6001 -418.48999 1.8403113e-38
1959.62 -2060.9099 -419.729 1.8403113e-38
2046.03 -1744.26 -419.67801 1.8403113e-38
2066.6299 -1668.6 -419.64899 1.8403113e-38
2076.3501 -1632.59 -419.60501 1.8403113e-38
2095.4299 -1565 -419.81699 1.8403113e-38
2316.24 -754.56097 -419.56201 1.8403113e-38
2315.49 -743.672 -418.255 1.8403113e-38
2311.0801 -731.65997 -415.55099 1.8403113e-38
2316.24 -723.297 -416.56201 1.8403113e-38
2310.72 -711.08398 -413.453 1.8403113e-38
2310.4299 -700.77802 -412.35901 1.8403113e-38
2575.46 285.48801 -410.75601 1.8403113e-38
2827.71 1111.95 -419.99899 1.8403113e-38
2876.4099 1321.74 -416.965 1.8403113e-38
2305.75 -684.14453 -409.121 1.8403113e-38
2303.52 -668.60999 -406.84601 1.8403113e-38
2305.5352 -654.57446 -406.20648 1.8403113e-38
2304.6799 -639.74902 -404.48599 1.8403113e-38
2304.0549 -625.16748 -402.86551 1.8403113e-38
2308.6899 -612.133 -403.242 1.8403113e-38
2306.53 -602.05402 -401.51801 1.8403113e-38
2317.04 -595.25598 -404.55499 1.8403113e-38
2333.8999 -589.87799 -409.95599 1.8403113e-38
2568.3401 267.55499 -409.97699 1.8403113e-38
2569.6899 295.39801 -407.77701 1.8403113e-38
2856.76 1329.61 -409.31 1.8403113e-38
2840.8601 1338.98 -402.827 1.8403113e-38
2861.8701 1393.48 -404.97501 1.8403113e-38
2821.8101 1374.98 -392.68399 1.8403113e-38
2801.26 1381.38 -384.85501 1.8403113e-38
2782.52 1387.0601 -377.73099 1.8403113e-38
2762.5901 1393.77 -370.09201 1.8403113e-38
2240.22 -439.677 -362.65399 1.8403113e-38
2429.4099 233.759 -364.444 1.8403113e-38
2743.8601 1398.99 -363.01199 1.8403113e-38
2409.6599 234.33701 -357.453 1.8403113e-38
2405 244.608 -354.832 1.8403113e-38
2406.27 256.77399 -354.10901 1.8403113e-38
2723.3101 1404.47 -355.27399 1.8403113e-38
2684.6599 1415.04 -340.69 1.8403113e-38
2705.1899 1410.01 -348.38 1.8403113e-38
2665.3701 1418.54 -333.57999 1.8403113e-38
2862.5601 2083.9399 -338.953 1.8403113e-38
2645.46 1423.91 -326.07501 1.8403113e-38
2631.99 1435.01 -320.27899 1.8403113e-38
2829.45 2076.9199 -328.00201 1.8403113e-38
2096.76 -418.51599 -310.255 1.8403113e-38
2611.47 1439.17 -312.67499 1.8403113e-38
2808.0701 2085.25 -319.69601 1.8403113e-38
2595.6001 1446.6899 -306.384 1.8403113e-38
2612.1899 1573.11 -300.07599 1.8403113e-38
2666.3301 1730.33 -303.99301 1.8403113e-38
2754.4299 2086.1499 -300.77701 1.8403113e-38
2777.79 2081.8101 -309.39301 1.8403113e-38
2049.3301 -401.245 -291.94601 1.8403113e-38
2069.3799 -409.181 -299.74399 1.8403113e-38
2573.4199 1447.96 -298.47501 1.8403113e-38
2590.05 1503.85 -298.94699 1.8403113e-38
2627.05 1629.84 -299.84698 1.8403113e-38
2040.55 -394.03799 -288.16901 1.8403113e-38
2022.71 -380.495 -280.60699 1.8403113e-38
2030.6899 -387.328 -284.06299 1.8403113e-38
1651.02 -1728.95 -279.52499 1.8403113e-38
2019.3101 -374.39301 -278.82901 1.8403113e-38
2010.41 -364.86652 -274.78799 1.8403113e-38
2008.9399 -355.638 -273.38501 1.8403113e-38
2001.55 -349.85199 -270.23599 1.8403113e-38
2103.3899 14.3811 -271.03601 1.8403113e-38
2123.8301 33.469501 -276.379 1.8403113e-38
1994.1801 -343.70599 -267.05899 1.8403113e-38
1984.88 -332.16501 -262.68701 1.8403113e-38
1998.01 -337.987 -267.85599 1.8403113e-38
1984.36 -323.59198 -261.68201 1.8403113e-38
1977.14 -315.44299 -258.36401 1.8403113e-38
1966.4301 -304.758 -253.577 1.8403113e-38
1972.3101 -309.70901 -256.12 1.8403113e-38
1967.48 -296.02252 -253.10901 1.8403113e-38
1967.5 -287.332 -252.28101 1.8403113e-38
2036.51 -24.9377 -251.32899 1.8403113e-38
1960.49 -282.78 -249.38499 1.8403113e-38
1958.92 -274.36349 -248.02399 1.8403113e-38
1957.425 -263.31851 -246.44 1.8403113e-38
1956.09 -254.884 -245.162 1.8403113e-38
1956.48 -246.5545 -244.5 1.8403113e-38
1954.15 -232.627 -242.345 1.8403113e-38
1953.3301 -224.49301 -241.27551 1.8403113e-38
1999.34 -56.543301 -241.313 1.8403113e-38
2004.96 -47.672001 -242.433 1.8403113e-38
1588.4301 -1482.1 -233.85699 1.8403113e-38
1941.83 -241.008 -238.82401 1.8403113e-38
1940.34 -219.099 -236.19901 1.8403113e-38
1951.47 -210.446 -239.274 1.8403113e-38
1937.47 -208.604 -234.18201 1.8403113e-38
1948.36 -197.14551 -236.90649 1.8403113e-38
1945.595 -186.4135 -234.90601 1.8403113e-38
1948.87 -171.243 -234.599 1.8403113e-38
1952.01 -175.63499 -236.12399 1.8403113e-38
1948.4399 -164.99699 -233.849 1.8403113e-38
1946.7749 -156.9805 -232.49649 1.8403113e-38
1953.1801 -146.21001 -233.711 1.8403113e-38
1958.5 -135.01151 -234.504 1.8403113e-38
1954.67 -126.955 -232.38699 1.8403113e-38
1961.04 -118.989 -233.85899 1.8403113e-38
1967.3 -109.713 -235.16499 1.8403113e-38
1972.59 -101.864 -236.271 1.8403113e-38
1968.89 -96.3563 -234.44 1.8403113e-38
1974.92 -88.008797 -235.757 1.8403113e-38
1986.11 -75.995796 -238.532 1.8403113e-38
1990.17 -68.149002 -239.205 1.8403113e-38
1568.25 -1434.91 -222.24699 1.8403113e-38
1538.46 -1421.2 -210.46899 1.8403113e-38
1558.64 -1429.65 -218.368 1.8403113e-38
1545.74 -1415.02 -212.435 1.8403113e-38
1493.15 -1500.58 -202.181 1.8403113e-38
1500.64 -1489.84 -203.78 1.8403113e-38
1508.4301 -1469.73 -204.584 1.8403113e-38
1516.8199 -1467.71 -207.33501 1.8403113e-38
1525.405 -1428.8601 -206.62201 1.8403113e-38
2235.5901 1215.3101 -202.19099 1.8403113e-38
1473.72 -1500.65 -195.36501 1.8403113e-38
1463.0699 -1499.8101 -191.54601 1.8403113e-38
1481.79 -1494.01 -197.564 1.8403113e-38
1443.1801 -1492.42 -183.855 1.8403113e-38
1454.08 -1497.4 -188.159 1.8403113e-38
2149 1087.5699 -184.05 1.8403113e-38
-252.464 -7608.21 -175.479 1.8403113e-38
1415.1 -1485.8101 -173.36099 1.8403113e-38
1423.72 -1486.62 -176.467 1.8403113e-38
1433.98 -1484.86 -179.89799 1.8403113e-38
2113.3401 1078.33 -172.418 1.8403113e-38
2132.1001 1086.8101 -178.19 1.8403113e-38
1385.74 -1480.86 -162.58 1.8403113e-38
1395.97 -1479.46 -166.036 1.8403113e-38
1404.42 -1478.46 -168.905 1.8403113e-38
2082.27 1076.23 -161.713 1.8403113e-38
2100.78 1085.13 -167.35699 1.8403113e-38
2206.8799 1465.5699 -168.095 1.8403113e-38
2225.3401 1547.48 -166.716 1.8403113e-38
-313.577 -7606.1201 -153.82201 1.8403113e-38
1366.91 -1473.97 -155.30701 1.8403113e-38
1377.08 -1471.74 -158.662 1.8403113e-38
1358.5 -1469.64 -151.937 1.8403113e-38
2053.6699 1077.9 -151.51199 1.8403113e-38
2065.71 1074.71 -156.04401 1.8403113e-38
1297.4 -1593.73 -142.397 1.8403113e-38
1307.54 -1572.6899 -143.935 1.8403113e-38
1318.86 -1562.02 -146.88499 1.8403113e-38
1328.5699 -1531.83 -147.397 1.8403113e-38
1340.13 -1457.24 -144.299 1.8403113e-38
1348.42 -1443.83 -145.923 1.8403113e-38
2055.3601 1113.84 -148.655 1.8403113e-38
2130.8601 1377.13 -149.894 1.8403113e-38
-375.39301 -7598.0801 -131.34801 1.8403113e-38
1274.67 -1629.03 -137.80299 1.8403113e-38
1287.66 -1566.38 -136.351 1.8403113e-38
1261.73 -1523.66 -123.146 1.8403113e-38
1270.5699 -1522.89 -126.178 1.8403113e-38
2167.0901 1725.59 -129.17101 1.8403113e-38
2161.3301 1764.42 -123.422 1.8403113e-38
1252.17 -1510.92 -118.569 1.8403113e-38
1233.66 -1503.58 -111.364 1.8403113e-38
1244.73 -1497.6 -114.679 1.8403113e-38
1863.64 810.93402 -110.414 1.8403113e-38
2170.4299 1839.3101 -119.428 1.8403113e-38
2216.51 2024.88 -117.797 1.8403113e-38
2209.3101 2063.8701 -111.53 1.8403113e-38
-436.55899 -7594.8198 -109.56 1.8403113e-38
1203.42 -1521.91 -102.507 1.8403113e-38
1213.83 -1508.79 -104.903 1.8403113e-38
1224.73 -1505.98 -108.46 1.8403113e-38
1836.1 799.27698 -101.863 1.8403113e-38
1850.71 804.93903 -106.45 1.8403113e-38
1882.39 969.64099 -101.765 1.8403113e-38
2189.6101 2074.0801 -103.63 1.8403113e-38
1171.2 -1533.89 -92.3452 1.8403113e-38
1182.71 -1529.5 -95.9664 1.8403113e-38
1194.09 -1511.65 -98.2453 1.8403113e-38
1831.4 812.36298 -98.957497 1.8403113e-38
2168.1001 2073.2 -96.163101 1.8403113e-38
-500.81699 -7595.3101 -87.047203 1.8403113e-38
1116.1899 -1614.26 -80.744904 1.8403113e-38
1131.71 -1592.6801 -84.122299 1.8403113e-38
1145.72 -1566.49 -86.527 1.8403113e-38
1159.1899 -1552.48 -89.910698 1.8403113e-38
2125.27 2076.97 -80.765404 1.8403113e-38
2147.3201 2080.1899 -88.198502 1.8403113e-38
1110.83 -1534.99 -71.254898 1.8403113e-38
1123.59 -1526.3 -74.900299 1.8403113e-38
2102.0901 2075.9299 -72.728798 1.8403113e-38
-561.328 -7587.9502 -65.095596 1.8403113e-38
2080.22 2072.24 -65.403702 1.8403113e-38
2056.9199 2069.78 -57.4585 1.8403113e-38
-623.89801 -7580.4702 -42.4105 1.8403113e-38
1675.67 791.409 -46.2953 1.8403113e-38
1758.47 1134.77 -42.4105 1.8403113e-38
