# .PCD v0.7 - Point Cloud Data file format
VERSION 0.7
FIELDS x y z rgb
SIZE 4 4 4 4
TYPE F F F F
COUNT 1 1 1 1
WIDTH 345
HEIGHT 1
VIEWPOINT 0 0 0 1 0 0 0
POINTS 345
DATA ascii
2056.8401 -1735.71 -422.65399 1.8403113e-38
2060.8701 -1714.15 -421.99701 1.8403113e-38
2064.5901 -1692.63 -421.23901 1.8403113e-38
2073.95 -1654.83 -420.89801 1.8403113e-38
2080.6299 -1640.1899 -421.83801 1.8403113e-38
2086.6399 -1624.6899 -422.461 1.8403113e-38
2088.05 -1601.6801 -420.746 1.8403113e-38
2093.6001 -1586.23 -421.21201 1.8403113e-38
2099.46 -1571.6 -421.866 1.8403113e-38
2100.54 -1549.58 -420.13199 1.8403113e-38
2107.01 -1536.62 -421.16 1.8403113e-38
2110.71 -1519.59 -420.82199 1.8403113e-38
2115.77 -1505 -421.20099 1.8403113e-38
2120.6599 -1490.42 -421.517 1.8403113e-38
2126.45 -1477.4301 -422.30499 1.8403113e-38
2130.99 -1462.85 -422.5 1.8403113e-38
2135.9099 -1449.0699 -422.90399 1.8403113e-38
2140.1001 -1434.51 -422.97601 1.8403113e-38
2149.25 -1426.92 -425.46201 1.8403113e-38
2147.9399 -1405.4399 -422.93799 1.8403113e-38
2152.1699 -1391.6899 -423.10699 1.8403113e-38
2155.6499 -1377.2 -422.93799 1.8403113e-38
2158.96 -1362.73 -422.70999 1.8403113e-38
2162.6899 -1349.03 -422.70599 1.8403113e-38
2165.04 -1333.87 -422.07599 1.8403113e-38
2165.97 -1317.29 -420.81 1.8403113e-38
2172.9199 -1308.05 -422.362 1.8403113e-38
2179.77 -1298.75 -423.87701 1.8403113e-38
2181.46 -1283.6899 -423.02499 1.8403113e-38
2183.6101 -1269.39 -422.40601 1.8403113e-38
2188.1699 -1257.9301 -422.90799 1.8403113e-38
2195.22 -1249.26 -424.552 1.8403113e-38
2198.24 -1236.39 -424.37701 1.8403113e-38
2201.1201 -1223.54 -424.15302 1.8403113e-38
2201.1599 -1208 -422.677 1.8403113e-38
2205.0701 -1196.5601 -422.953 1.8403113e-38
2207.5 -1183.79 -422.57901 1.8403113e-38
2213.9099 -1175 -423.98499 1.8403113e-38
2220.9299 -1166.8199 -425.66501 1.8403113e-38
2220.8999 -1152.11 -424.24301 1.8403113e-38
2220.6899 -1137.48 -422.76501 1.8403113e-38
2223.8601 -1126.08 -422.78201 1.8403113e-38
2229.76 -1117.1899 -424.00299 1.8403113e-38
2233.4299 -1106.41 -424.255 1.8403113e-38
2236.26 -1095 -424.15399 1.8403113e-38
2240.4299 -1084.8199 -424.64301 1.8403113e-38
2243.03 -1073.4301 -424.46301 1.8403113e-38
2247.74 -1063.8199 -425.194 1.8403113e-38
2248.6299 -1051.27 -424.29999 1.8403113e-38
2252.3799 -1041.0699 -424.63901 1.8403113e-38
2253.77 -1029.16 -423.98199 1.8403113e-38
2255.02 -1017.27 -423.28299 1.8403113e-38
2264.5901 -1011.53 -426.08899 1.8403113e-38
2259.47 -995.25598 -422.73099 1.8403113e-38
2268.8999 -989.41199 -425.48001 1.8403113e-38
2273.6201 -980.24402 -426.258 1.8403113e-38
2273.55 -967.88501 -425.048 1.8403113e-38
2274.1399 -956.10101 -424.12201 1.8403113e-38
2283.3401 -949.98602 -426.76501 1.8403113e-38
2283.72 -938.20697 -425.76999 1.8403113e-38
2286.3999 -927.96198 -425.72601 1.8403113e-38
2291.3899 -919.18597 -426.638 1.8403113e-38
2292.26 -907.96002 -425.86499 1.8403113e-38
2293.8301 -897.24103 -425.388 1.8403113e-38
2300.22 -889.33801 -426.871 1.8403113e-38
2299.95 -877.69598 -425.66101 1.8403113e-38
2306.1899 -869.71198 -427.086 1.8403113e-38
2312.3799 -861.65802 -428.48401 1.8403113e-38
2309.3101 -848.74701 -426.16901 1.8403113e-38
2307.78 -836.79401 -424.48499 1.8403113e-38
2311.1899 -827.42999 -424.78101 1.8403113e-38
2316.2 -818.86902 -425.72101 1.8403113e-38
2324.5601 -811.87 -427.983 1.8403113e-38
2319.21 -798.427 -424.815 1.8403113e-38
2323.1399 -789.39001 -425.328 1.8403113e-38
2319.25 -776.90198 -422.76401 1.8403113e-38
2321.28 -767.12799 -422.53799 1.8403113e-38
2381.3501 -581.30298 -425.79199 1.8403113e-38
2388.0901 -572.74597 -427.33899 1.8403113e-38
2386.49 -562.39099 -425.78299 1.8403113e-38
2385.72 -552.26801 -424.54099 1.8403113e-38
2386.71 -542.52399 -423.952 1.8403113e-38
2390.3899 -533.27002 -424.35699 1.8403113e-38
2397.71 -524.58502 -426.09399 1.8403113e-38
2400.3301 -515.05603 -426.09799 1.8403113e-38
2401 -505.224 -425.39099 1.8403113e-38
2407.1899 -496.16699 -426.694 1.8403113e-38
2403.04 -485.69501 -424.233 1.8403113e-38
2410.95 -476.76099 -426.151 1.8403113e-38
2403.8201 -466.05701 -422.62201 1.8403113e-38
2660.99 434.54401 -426.479 1.8403113e-38
2670.52 455.97299 -427.76901 1.8403113e-38
2657.5701 463.737 -422.47699 1.8403113e-38
2674.0801 490.104 -425.74301 1.8403113e-38
2684.5601 513.11798 -427.211 1.8403113e-38
2690.7 533.69202 -427.39301 1.8403113e-38
2699.8301 556.60797 -428.401 1.8403113e-38
2700.6699 574.23602 -427.00201 1.8403113e-38
2714.8799 601.42902 -429.38199 1.8403113e-38
2713.6699 618.19501 -427.349 1.8403113e-38
2723.3401 643.01703 -428.35999 1.8403113e-38
2729.5601 665.758 -428.36301 1.8403113e-38
2737.0701 689.849 -428.689 1.8403113e-38
2742.75 712.95502 -428.46301 1.8403113e-38
2748.9099 736.83099 -428.33701 1.8403113e-38
2757.0901 762.711 -428.72501 1.8403113e-38
2757.3401 782.66498 -426.897 1.8403113e-38
2761.1499 805.802 -426.013 1.8403113e-38
2776.7 839.13098 -428.27399 1.8403113e-38
2779.8701 862.65802 -427.13 1.8403113e-38
2788.7 891.453 -427.46399 1.8403113e-38
2788.3201 912.70801 -425.293 1.8403113e-38
2798.6699 943.85797 -425.935 1.8403113e-38
2802.8 969.987 -424.88 1.8403113e-38
2800.1399 990.26703 -421.99799 1.8403113e-38
2810.1101 1022.72 -422.38599 1.8403113e-38
2826.05 1061.5601 -424.25299 1.8403113e-38
2825.97 1085.67 -421.91299 1.8403113e-38
2833.99 1118.1899 -421.60699 1.8403113e-38
2850.5901 1160.03 -423.42001 1.8403113e-38
2859.75 1195.22 -423.258 1.8403113e-38
2875.26 1237.78 -424.61801 1.8403113e-38
2886.8 1277.13 -424.89499 1.8403113e-38
2894.47 1313.17 -424.12601 1.8403113e-38
2038.24 -1728.6 -415.44 1.8403113e-38
2066.6299 -1668.6 -419.64899 1.8403113e-38
2311.9399 -752.62799 -417.86801 1.8403113e-38
2309.3999 -741.18402 -415.87601 1.8403113e-38
2306.6699 -724.6875 -413.33499 1.8403113e-38
2305.47 -709.01501 -411.41 1.8403113e-38
2360.8201 -586.54797 -419.08701 1.8403113e-38
2876.4099 1321.74 -416.965 1.8403113e-38
2300.71 -697.22803 -408.60901 1.8403113e-38
2297.6001 -686.19098 -406.45801 1.8403113e-38
2300.6001 -677.388 -406.66599 1.8403113e-38
2297.29 -666.474 -404.45499 1.8403113e-38
2297.4399 -656.81097 -403.582 1.8403113e-38
2302.8899 -648.862 -404.73099 1.8403113e-38
2299.29 -638.11102 -402.43399 1.8403113e-38
2300.0901 -628.77802 -401.819 1.8403113e-38
2305.6499 -616.05151 -402.55099 1.8403113e-38
2307.02 -592.73297 -400.793 1.8403113e-38
2322.9399 -587.20898 -405.853 1.8403113e-38
2560.0801 276.76901 -406.194 1.8403113e-38
2570.54 295.85199 -408.034 1.8403113e-38
2598.5901 382.35501 -409.58099 1.8403113e-38
2851.74 1322.74 -408.207 1.8403113e-38
2836.29 1333.79 -401.72101 1.8403113e-38
2853.0801 1382.03 -402.98801 1.8403113e-38
1449.79 -3621.1201 -390.47299 1.8403113e-38
1476.58 -3611.26 -398.92999 1.8403113e-38
1996.42 -1673.15 -395.43701 1.8403113e-38
2299.26 -600.13898 -398.78201 1.8403113e-38
2516.71 241.272 -394.37299 1.8403113e-38
2829.49 1384.01 -394.51501 1.8403113e-38
1201.0601 -4497.8999 -387.29099 1.8403113e-38
2802.1599 1381.14 -385.19699 1.8403113e-38
1168.9399 -4449.6899 -371.38599 1.8403113e-38
1395.97 -3653.0601 -374.642 1.8403113e-38
1421.65 -3573.0701 -375.978 1.8403113e-38
1958.53 -1623.16 -377.33499 1.8403113e-38
2783.1499 1387.8199 -377.879 1.8403113e-38
2763.5 1393.52 -370.43399 1.8403113e-38
1368.6801 -3665.1899 -366.22501 1.8403113e-38
1918.72 -1623.58 -363.39899 1.8403113e-38
1926.97 -1612.65 -365.246 1.8403113e-38
1940.01 -1612.27 -369.78799 1.8403113e-38
2237.3799 -439.54901 -361.64401 1.8403113e-38
2418.4199 227.05299 -361.228 1.8403113e-38
2744.47 1399.76 -363.15399 1.8403113e-38
1341.27 -3660.1499 -356.11801 1.8403113e-38
1892.1 -1592.42 -351.061 1.8403113e-38
2413.04 236.213 -358.461 1.8403113e-38
2402.54 242.45399 -354.17401 1.8403113e-38
2403.75 255.321 -353.36401 1.8403113e-38
2724.8301 1405 -355.755 1.8403113e-38
1313.78 -3669.79 -347.392 1.8403113e-38
1873.28 -1577.92 -343.06201 1.8403113e-38
2704.5901 1409.23 -348.24399 1.8403113e-38
2684.97 1414 -340.89899 1.8403113e-38
1286.0699 -3683.1599 -338.94501 1.8403113e-38
1842 -1561.73 -330.52899 1.8403113e-38
1854.38 -1562.26 -334.92401 1.8403113e-38
2664.78 1417.75 -333.44901 1.8403113e-38
2855.75 2072.95 -337.616 1.8403113e-38
1259.02 -3665.4099 -327.746 1.8403113e-38
1817.54 -1592.3101 -324.875 1.8403113e-38
1819.87 -1566.65 -323.23001 1.8403113e-38
1832.9 -1569.24 -328.05499 1.8403113e-38
2646.3701 1423.66 -326.41699 1.8403113e-38
2828.8101 2074.1299 -328.04401 1.8403113e-38
1163.4399 -3916.3101 -318.267 1.8403113e-38
1802.4301 -1584.01 -318.77399 1.8403113e-38
2101.45 -418.94199 -311.94101 1.8403113e-38
2627.95 1429.37 -319.40201 1.8403113e-38
2612.3701 1438.92 -313.017 1.8403113e-38
2807.05 2083.54 -319.50101 1.8403113e-38
2593.9099 1444.24 -306.02399 1.8403113e-38
2778.6899 2081.5601 -309.73499 1.8403113e-38
1146.98 -3704.3899 -292.14801 1.8403113e-38
1754.5601 -1514.0601 -295.25201 1.8403113e-38
1766.89 -1517.38 -299.90201 1.8403113e-38
2048.3899 -401.17801 -291.60901 1.8403113e-38
2059.02 -408.51001 -296.04401 1.8403113e-38
2576.5601 1451 -299.285 1.8403113e-38
2580.1299 1488.97 -296.892 1.8403113e-38
2597.3101 1548.75 -297.189 1.8403113e-38
2616.8301 1613.96 -297.785 1.8403113e-38
2638.04 1683.84 -298.522 1.8403113e-38
2749.97 2078.3799 -299.95499 1.8403113e-38
927.94299 -4480.7798 -289.76001 1.8403113e-38
1120.47 -3686.3701 -281.11301 1.8403113e-38
1722.55 -1517.3 -284.32401 1.8403113e-38
1726.21 -1494.88 -283.45901 1.8403113e-38
1738.26 -1498.52 -288.03799 1.8403113e-38
2043.33 -394.40399 -289.18301 1.8403113e-38
2028.8101 -387.22699 -283.39301 1.8403113e-38
2024.97 -374.59201 -280.832 1.8403113e-38
1090.0699 -3721.8201 -273.841 1.8403113e-38
1710.1801 -1512.53 -279.526 1.8403113e-38
1694.5699 -1496.33 -272.48999 1.8403113e-38
2010.4399 -380.15701 -276.26599 1.8403113e-38
2019.67 -368.25101 -278.36301 1.8403113e-38
2000.41 -355.815 -270.409 1.8403113e-38
2003.4301 -349.84799 -270.89801 1.8403113e-38
1064.3101 -3696.3401 -262.354 1.8403113e-38
1676.8101 -1471.4301 -263.86401 1.8403113e-38
1993.5699 -361.66699 -268.56799 1.8403113e-38
1993.2 -343.974 -266.741 1.8403113e-38
1987.6499 -335.28101 -263.95898 1.8403113e-38
1988.62 -326.48401 -263.453 1.8403113e-38
2073.9099 0.0203929 -262.06299 1.8403113e-38
2098.8201 20.314899 -268.86099 1.8403113e-38
929.24701 -4160.3198 -259.46201 1.8403113e-38
1038.23 -3678.5801 -251.49001 1.8403113e-38
1663.73 -1461.42 -258.311 1.8403113e-38
1651.36 -1453.15 -253.17599 1.8403113e-38
1980.0699 -321.04501 -259.931 1.8403113e-38
1970.53 -315.819 -256.08099 1.8403113e-38
1969.26 -304.54401 -254.55 1.8403113e-38
1973.22 -309.957 -256.46201 1.8403113e-38
1964.635 -296.44751 -252.1505 1.8403113e-38
1960.87 -288.35699 -250.05099 1.8403113e-38
1594.02 -1560.04 -243.30299 1.8403113e-38
1604.6899 -1560.34 -247.076 1.8403113e-38
1613.92 -1462.76 -240.953 1.8403113e-38
1623.1801 -1460.01 -243.94099 1.8403113e-38
1632.1899 -1456.22 -246.73801 1.8403113e-38
1640.4 -1449.5 -248.978 1.8403113e-38
1960.49 -282.78 -249.38499 1.8403113e-38
1957.02 -274.78198 -247.39799 1.8403113e-38
1944.735 -265.345 -242.179 1.8403113e-38
1944.17 -251.64799 -240.66701 1.8403113e-38
1957 -255.132 -245.504 1.8403113e-38
1994.99 -59.1828 -240.03799 1.8403113e-38
2011.3101 -37.620098 -243.69701 1.8403113e-38
928.34497 -3902.51 -234.403 1.8403113e-38
1548.3199 -1602.91 -231.371 1.8403113e-38
1556.48 -1587.0601 -232.716 1.8403113e-38
1565.41 -1577.01 -234.88699 1.8403113e-38
1583.39 -1559.63 -239.53 1.8403113e-38
1570.84 -1548.4301 -234.05 1.8403113e-38
1597.84 -1479.5699 -236.92101 1.8403113e-38
1605.29 -1468.3101 -238.455 1.8403113e-38
1942.6599 -243.6225 -239.3665 1.8403113e-38
1941.1201 -232.83701 -237.7905 1.8403113e-38
1940.3199 -224.675 -236.72501 1.8403113e-38
1938.9351 -216.6295 -235.46851 1.8403113e-38
1936.95 -205.936 -233.744 1.8403113e-38
1934.7849 -195.2865 -231.961 1.8403113e-38
1944.99 -183.95799 -234.45799 1.8403113e-38
1943.5649 -175.73401 -233.168 1.8403113e-38
1943.63 -164.10199 -232.075 1.8403113e-38
1946.51 -154.396 -232.155 1.8403113e-38
1946.5149 -145.498 -231.30299 1.8403113e-38
1948.23 -135.955 -230.98801 1.8403113e-38
1953.8301 -124.80251 -231.884 1.8403113e-38
1959.27 -113.464 -232.705 1.8403113e-38
1963.6801 -105.448 -233.487 1.8403113e-38
1962.6899 -99.536201 -232.569 1.8403113e-38
1973.02 -85.565849 -234.85599 1.8403113e-38
1984.01 -70.883499 -237.30499 1.8403113e-38
1992.73 -53.363998 -238.685 1.8403113e-38
1457.79 -1819.58 -220.383 1.8403113e-38
1496.02 -1713.63 -223.636 1.8403113e-38
1503.3199 -1676.4399 -222.629 1.8403113e-38
1513.25 -1665.79 -225.093 1.8403113e-38
1521.87 -1646.23 -226.241 1.8403113e-38
1531.4 -1635.4399 -228.554 1.8403113e-38
1538.47 -1608.92 -228.491 1.8403113e-38
-129.48399 -7620.1699 -219.804 1.8403113e-38
928.63202 -3668.6201 -212.05701 1.8403113e-38
1422.86 -1858.92 -211.894 1.8403113e-38
1435.14 -1853.84 -215.718 1.8403113e-38
1445.42 -1817.92 -215.88 1.8403113e-38
1464.23 -1745.9399 -215.575 1.8403113e-38
1475.71 -1743.49 -219.37199 1.8403113e-38
1484.7 -1715.27 -219.81799 1.8403113e-38
2281.02 1294.02 -210.589 1.8403113e-38
-190.423 -7614.1099 -197.827 1.8403113e-38
642.31403 -4533.25 -194.515 1.8403113e-38
926.81799 -3478.4399 -193.168 1.8403113e-38
610.73499 -4511.96 -181.384 1.8403113e-38
2149 1087.5699 -184.05 1.8403113e-38
-251.77299 -7609.4302 -175.839 1.8403113e-38
923.96802 -3317.0701 -176.67999 1.8403113e-38
2116.6101 1084.49 -172.976 1.8403113e-38
2133 1086.5699 -178.532 1.8403113e-38
505.38199 -4689.29 -161.41499 1.8403113e-38
572.67603 -4526.7402 -169.44099 1.8403113e-38
901.82397 -3299.01 -167.173 1.8403113e-38
2081.8201 1075.34 -161.63901 1.8403113e-38
2101.23 1084 -167.62199 1.8403113e-38
2202.6299 1456.54 -167.47099 1.8403113e-38
2217.9099 1529.09 -165.87 1.8403113e-38
2230 1597.47 -163.55499 1.8403113e-38
-313.129 -7604.1699 -153.79201 1.8403113e-38
878.36603 -3290.6201 -158.131 1.8403113e-38
2052.3601 1075.21 -151.308 1.8403113e-38
2066.1699 1073.5699 -156.315 1.8403113e-38
2055.8301 1112.6899 -148.931 1.8403113e-38
-374.48599 -7598.3301 -131.69 1.8403113e-38
1965.1 1039.1801 -124.132 1.8403113e-38
2165.0901 1771.64 -124.05 1.8403113e-38
2170.4299 1839.3101 -119.428 1.8403113e-38
2217.4099 2024.63 -118.139 1.8403113e-38
2214.99 2079.8899 -111.986 1.8403113e-38
-436.07901 -7592.8799 -109.542 1.8403113e-38
1837 799.02899 -102.205 1.8403113e-38
1851.1 805.85602 -106.501 1.8403113e-38
1943.59 1155.28 -105.437 1.8403113e-38
2191.8201 2077.6201 -104.068 1.8403113e-38
1828.36 804.97101 -98.600403 1.8403113e-38
1820.77 813.61902 -95.104797 1.8403113e-38
2170.6399 2080.78 -96.330101 1.8403113e-38
-499.91 -7595.5601 -87.389198 1.8403113e-38
2125.27 2076.97 -80.765404 1.8403113e-38
2147.9199 2079 -88.522697 1.8403113e-38
2103 2075.6799 -73.070801 1.8403113e-38
-558.51501 -7577.3198 -65.062798 1.8403113e-38
2082.8101 2080.8601 -65.484299 1.8403113e-38
2056.71 2065.7 -57.776699 1.8403113e-38
-622.46399 -7578.79 -42.752499 1.8403113e-38
1729.05 1023.6 -42.752499 1.8403113e-38
1773.71 1138.84 -47.3727 1.8403113e-38
