# .PCD v0.7 - Point Cloud Data file format
VERSION 0.7
FIELDS x y z rgb
SIZE 4 4 4 4
TYPE F F F F
COUNT 1 1 1 1
WIDTH 345
HEIGHT 1
VIEWPOINT 0 0 0 1 0 0 0
POINTS 345
DATA ascii
2315.97 -876.31299 -430.759 1.8403113e-38
1888.78 -2331.6001 -420.77399 1.8403113e-38
1914.27 -2235.5801 -420.48801 1.8403113e-38
1922.03 -2202.48 -420.02802 1.8403113e-38
1932.08 -2180.9099 -421.48001 1.8403113e-38
1938.3101 -2145.96 -420.30801 1.8403113e-38
1947.64 -2124.3601 -421.50601 1.8403113e-38
1956.75 -2100.5901 -422.41699 1.8403113e-38
1961.54 -2067.8799 -420.95001 1.8403113e-38
1969.88 -2044.12 -421.59299 1.8403113e-38
1976.84 -2019.74 -421.69199 1.8403113e-38
1985.1801 -1997.8101 -422.51199 1.8403113e-38
1991.47 -1973.45 -422.375 1.8403113e-38
1994.79 -1940.65 -420.384 1.8403113e-38
2004.03 -1925.38 -422.16199 1.8403113e-38
2008.41 -1897.1801 -420.98499 1.8403113e-38
2017.54 -1882.78 -422.80701 1.8403113e-38
2023.96 -1860.88 -422.95499 1.8403113e-38
2029.86 -1840.22 -423.03699 1.8403113e-38
2035.67 -1818.35 -422.97299 1.8403113e-38
2036.8101 -1788.9301 -420.54401 1.8403113e-38
2047.89 -1779.4 -423.51599 1.8403113e-38
2052.23 -1757.9301 -422.974 1.8403113e-38
2059.04 -1740.5 -423.689 1.8403113e-38
2059.25 -1712.1899 -421.039 1.8403113e-38
2066.8601 -1697.38 -422.28799 1.8403113e-38
2069.5901 -1675.21 -421.11301 1.8403113e-38
2076.77 -1660.4 -422.207 1.8403113e-38
2078.9399 -1638.3101 -420.84601 1.8403113e-38
2085.6799 -1623.51 -421.78699 1.8403113e-38
2091.22 -1608.2 -422.259 1.8403113e-38
2095.0901 -1589.22 -421.79401 1.8403113e-38
2102.73 -1578.0601 -423.40302 1.8403113e-38
2104.1201 -1555.84 -421.75201 1.8403113e-38
2108.3201 -1539.77 -421.67999 1.8403113e-38
2119.78 -1512.16 -423.048 1.8403113e-38
2129.27 -1503.76 -425.57001 1.8403113e-38
2124.04 -1474.99 -420.96701 1.8403113e-38
2133.75 -1467.36 -423.642 1.8403113e-38
2138.47 -1453.74 -423.98901 1.8403113e-38
2142.3501 -1438.2 -423.85699 1.8403113e-38
2146.73 -1424.6 -424.08801 1.8403113e-38
2146.1899 -1403.72 -421.89099 1.8403113e-38
2154.28 -1395.52 -423.94199 1.8403113e-38
2158.01 -1380.83 -423.836 1.8403113e-38
2162.3201 -1368.04 -424.11899 1.8403113e-38
2165.1001 -1352.63 -423.612 1.8403113e-38
2167.8701 -1338.39 -423.21701 1.8403113e-38
2168.4299 -1320.85 -421.724 1.8403113e-38
2175.1899 -1311.79 -423.22699 1.8403113e-38
2177.24 -1296.51 -422.478 1.8403113e-38
2185.0601 -1288.83 -424.483 1.8403113e-38
2186.8 -1273.59 -423.62701 1.8403113e-38
2190.55 -1261.61 -423.79199 1.8403113e-38
2191.9399 -1246.45 -422.82199 1.8403113e-38
2194.74 -1233.8199 -422.591 1.8403113e-38
2204.4199 -1227.65 -425.39499 1.8403113e-38
2203.6399 -1211.61 -423.57901 1.8403113e-38
2207.0801 -1199.28 -423.60001 1.8403113e-38
2210.03 -1187.37 -423.48901 1.8403113e-38
2216.6299 -1178.36 -424.94101 1.8403113e-38
2219.3501 -1166.45 -424.74701 1.8403113e-38
2223.6699 -1155.4301 -425.20499 1.8403113e-38
2224.02 -1141.62 -424 1.8403113e-38
2233.05 -1135.0601 -426.54001 1.8403113e-38
2232.4299 -1120.66 -424.93701 1.8403113e-38
2237 -1110.27 -425.54099 1.8403113e-38
2238.97 -1098.4301 -425.095 1.8403113e-38
2245.52 -1089.84 -426.56699 1.8403113e-38
2245.79 -1076.8199 -425.41101 1.8403113e-38
2250.6699 -1066.99 -426.17801 1.8403113e-38
2253.6699 -1056.38 -426.20901 1.8403113e-38
2254.6001 -1043.63 -425.30899 1.8403113e-38
2263.4199 -1037.61 -427.82599 1.8403113e-38
2258.79 -1020.92 -424.59799 1.8403113e-38
2269 -1015.93 -427.70099 1.8403113e-38
2269.46 -1003.24 -426.64001 1.8403113e-38
2272.6001 -993.19397 -426.77802 1.8403113e-38
2276.7 -983.25201 -427.26099 1.8403113e-38
2278.0901 -972.13702 -426.67801 1.8403113e-38
2276.47 -958.54498 -424.802 1.8403113e-38
2287.1299 -953.65802 -428.077 1.8403113e-38
2286.8701 -941.12903 -426.78 1.8403113e-38
2290.24 -931.57599 -427.04401 1.8403113e-38
2296.1899 -923.04498 -428.31201 1.8403113e-38
2301.02 -914.40802 -429.17599 1.8403113e-38
2302.76 -903.39502 -428.72699 1.8403113e-38
2303.3301 -892.37201 -427.86899 1.8403113e-38
2304.8501 -881.40601 -427.34698 1.8403113e-38
2314.8301 -863.96503 -429.17099 1.8403113e-38
2315.01 -853.00098 -428.17899 1.8403113e-38
2318.6499 -843.34399 -428.52899 1.8403113e-38
2315.25 -830.75098 -426.12601 1.8403113e-38
2317.01 -820.29102 -425.73599 1.8403113e-38
2319.3101 -810.69 -425.621 1.8403113e-38
2320.8799 -800.24701 -425.16599 1.8403113e-38
2326.4299 -792.20203 -426.34299 1.8403113e-38
2321.8 -779.086 -423.453 1.8403113e-38
2317.6899 -766.914 -420.84201 1.8403113e-38
2364.46 -588.63098 -420.10999 1.8403113e-38
2389.53 -584.63397 -428.526 1.8403113e-38
2384.3999 -573.21002 -425.62701 1.8403113e-38
2386.4199 -563.888 -425.44199 1.8403113e-38
2388.47 -554.078 -425.21701 1.8403113e-38
2392.1899 -545.06897 -425.65701 1.8403113e-38
2395.9399 -535.53802 -426.05399 1.8403113e-38
2402.3 -526.89697 -427.45599 1.8403113e-38
2405.8899 -517.242 -427.79001 1.8403113e-38
2404.6799 -507.33099 -426.41101 1.8403113e-38
2404.3899 -497.10999 -425.32599 1.8403113e-38
2407.6699 -487.87201 -425.59 1.8403113e-38
2410.02 -477.99799 -425.46201 1.8403113e-38
2408.47 -468.16599 -423.97501 1.8403113e-38
2668.26 436.186 -428.18701 1.8403113e-38
2668.52 452.384 -426.71899 1.8403113e-38
2666.45 466.51401 -424.634 1.8403113e-38
2684.4199 494.276 -428.271 1.8403113e-38
2688.5 512.83899 -427.918 1.8403113e-38
2695.28 534.26599 -428.23801 1.8403113e-38
2696.51 551.47498 -427.01401 1.8403113e-38
2704.4299 574.31403 -427.59698 1.8403113e-38
2711.6399 596.20001 -428.022 1.8403113e-38
2717.4299 618.31 -427.927 1.8403113e-38
2722.54 639.41302 -427.694 1.8403113e-38
2733.3101 665.90997 -428.923 1.8403113e-38
2741.02 689.71198 -429.34201 1.8403113e-38
2746.48 713.14398 -429.00601 1.8403113e-38
2745.1499 730.72699 -426.84698 1.8403113e-38
2754.6899 758.078 -427.56601 1.8403113e-38
2762.05 783.21301 -427.73001 1.8403113e-38
2763.3501 804.82397 -426.10999 1.8403113e-38
2772.3799 832.19098 -426.646 1.8403113e-38
2783.5801 862.95599 -427.61899 1.8403113e-38
2793.3899 892.09003 -428.258 1.8403113e-38
2789.8101 911.09802 -425.17599 1.8403113e-38
2801.8799 943.23401 -426.323 1.8403113e-38
2805.04 969.03198 -424.95001 1.8403113e-38
2808.4099 994.33801 -423.69699 1.8403113e-38
2808.0701 1017.73 -421.32901 1.8403113e-38
2827.8799 1059.61 -424.25299 1.8403113e-38
2835.98 1092.28 -423.957 1.8403113e-38
2830.26 1110.6899 -420.177 1.8403113e-38
2852.1799 1158.4 -423.284 1.8403113e-38
2869.22 1201 -425.16699 1.8403113e-38
2879.6001 1238.98 -425.16 1.8403113e-38
2890.79 1277.29 -425.39999 1.8403113e-38
2897.46 1312.97 -424.31 1.8403113e-38
1504.29 -3632.04 -410.88501 1.8403113e-38
1526.58 -3551.3201 -410.94601 1.8403113e-38
1549.11 -3474.3201 -411.45001 1.8403113e-38
1569.47 -3402.29 -411.66901 1.8403113e-38
1589.28 -3322.1001 -410.91101 1.8403113e-38
1607.79 -3255.8201 -411.03299 1.8403113e-38
1628.3101 -3209.05 -413.737 1.8403113e-38
1645.0699 -3144.5801 -413.42001 1.8403113e-38
1662.38 -3083.8101 -413.65201 1.8403113e-38
1678.67 -3032.02 -414.388 1.8403113e-38
1694.34 -2973.1001 -414.22198 1.8403113e-38
1708.54 -2918.25 -413.92999 1.8403113e-38
1725.0699 -2877.8501 -415.84799 1.8403113e-38
1737.36 -2820.97 -414.689 1.8403113e-38
1752.79 -2782.3999 -416.397 1.8403113e-38
1764.78 -2733.28 -415.88101 1.8403113e-38
1778.02 -2689.75 -416.34299 1.8403113e-38
1790.36 -2650.3101 -416.88199 1.8403113e-38
1801.5 -2602.8501 -416.22501 1.8403113e-38
1814.16 -2571.0901 -417.61801 1.8403113e-38
1825.8 -2532.3 -417.97 1.8403113e-38
1835.29 -2490.8501 -417.31601 1.8403113e-38
1846.8101 -2456.8401 -418.08801 1.8403113e-38
1857.1801 -2424.02 -418.57101 1.8403113e-38
1867.1801 -2388.05 -418.62201 1.8403113e-38
1876.78 -2356.1699 -418.92599 1.8403113e-38
1894.05 -2287.3701 -418.37299 1.8403113e-38
1904.88 -2261.8201 -419.716 1.8403113e-38
2109.1299 -1517.6899 -419.84201 1.8403113e-38
2314.51 -754.77698 -418.556 1.8403113e-38
2311.02 -743.17999 -416.216 1.8403113e-38
2307.5801 -731.24402 -413.86099 1.8403113e-38
2312.6201 -723.242 -414.85901 1.8403113e-38
2302.8 -709.10999 -410.05399 1.8403113e-38
2312.0801 -702.74103 -412.70001 1.8403113e-38
2602.3799 382.29401 -410.24301 1.8403113e-38
2875.0701 1316.11 -416.14899 1.8403113e-38
2304.3599 -684.86902 -408.271 1.8403113e-38
2308.8501 -671.46997 -408.55801 1.8403113e-38
2299.1399 -658.73401 -403.92401 1.8403113e-38
2307.3501 -651.40698 -406.10101 1.8403113e-38
2301 -640.01801 -402.776 1.8403113e-38
2301.8701 -630.461 -402.16199 1.8403113e-38
2307.05 -622.633 -403.228 1.8403113e-38
2304.1399 -612.065 -401.189 1.8403113e-38
2309.1799 -604.17102 -402.202 1.8403113e-38
2313.3701 -595.54102 -402.84299 1.8403113e-38
2328.3501 -589.97101 -407.56299 1.8403113e-38
2570.75 280.14899 -408.965 1.8403113e-38
2565.9299 290.884 -406.241 1.8403113e-38
2854.05 1321.84 -408.22 1.8403113e-38
2845.46 1339.99 -403.45801 1.8403113e-38
2852.1699 1377.41 -402.215 1.8403113e-38
1449.66 -3628.1699 -391.33701 1.8403113e-38
1475.83 -3618.3601 -399.58099 1.8403113e-38
2530.1001 245.633 -398.01401 1.8403113e-38
2827.6699 1377.54 -393.60001 1.8403113e-38
1200.59 -4493.8999 -387.173 1.8403113e-38
2805.74 1381.79 -385.495 1.8403113e-38
1166.79 -4465.5801 -372.58401 1.8403113e-38
1395.79 -3665.0701 -375.97601 1.8403113e-38
1420.74 -3576.1599 -376.18399 1.8403113e-38
2786.4299 1387.4301 -378.173 1.8403113e-38
2766.4199 1393.46 -370.57199 1.8403113e-38
1367.6899 -3669.25 -366.517 1.8403113e-38
2234.5901 -440.56799 -360.28201 1.8403113e-38
2424.74 228.35201 -362.69101 1.8403113e-38
2747.1201 1398.64 -363.29599 1.8403113e-38
1340.9399 -3664.1699 -356.63501 1.8403113e-38
2397.02 237.181 -352.11099 1.8403113e-38
2407.6001 230.76401 -356.444 1.8403113e-38
2410.1299 256.52802 -354.853 1.8403113e-38
2727.1201 1404.1899 -355.74301 1.8403113e-38
1312.72 -3675.8101 -347.849 1.8403113e-38
2707.8301 1408.92 -348.517 1.8403113e-38
2687.8601 1414.01 -341.01501 1.8403113e-38
1285.9 -3676.21 -338.47299 1.8403113e-38
2668.5901 1418.28 -333.84201 1.8403113e-38
2860.28 2074.3601 -338.02701 1.8403113e-38
1257.9399 -3669.4099 -328.00299 1.8403113e-38
2648.6399 1422.9 -326.39401 1.8403113e-38
2831.28 2073.3401 -327.94299 1.8403113e-38
1162.75 -3922.26 -318.90799 1.8403113e-38
2097.7 -420.02899 -310.255 1.8403113e-38
2629.4099 1426.73 -319.276 1.8403113e-38
2610.6399 1432.51 -312.13101 1.8403113e-38
2810.51 2083.3101 -319.69601 1.8403113e-38
2596.53 1443.25 -306.14401 1.8403113e-38
2753.8899 2079.0701 -300.229 1.8403113e-38
2782.1499 2082.52 -309.81799 1.8403113e-38
926.67603 -4487.6201 -290.418 1.8403113e-38
1146.39 -3698.3601 -291.63 1.8403113e-38
2063.74 -410.147 -297.38199 1.8403113e-38
2053.1001 -402.935 -292.95401 1.8403113e-38
2579.9299 1451.9301 -299.48401 1.8403113e-38
2584.4099 1490.48 -297.349 1.8403113e-38
2600.6799 1549.7 -297.36401 1.8403113e-38
2620.0701 1613.8101 -298.00201 1.8403113e-38
2640.8899 1683.96 -298.564 1.8403113e-38
1119.9301 -3690.3101 -281.56699 1.8403113e-38
2045.24 -395.78799 -289.508 1.8403113e-38
2034.47 -388.95401 -285.069 1.8403113e-38
1089.27 -3719.75 -273.63599 1.8403113e-38
2021.77 -381.93301 -279.935 1.8403113e-38
2017.46 -375.758 -277.827 1.8403113e-38
2013.11 -369.36801 -275.686 1.8403113e-38
2005.7351 -354.22803 -271.642 1.8403113e-38
1063.63 -3701.25 -262.858 1.8403113e-38
1997.37 -363.16699 -269.565 1.8403113e-38
1997.02 -345.25 -267.71899 1.8403113e-38
1991.005 -336.59698 -264.77499 1.8403113e-38
1985.3401 -325.134 -261.68402 1.8403113e-38
2101.6799 19.827299 -269.34399 1.8403113e-38
928.61603 -4155.1802 -259.12399 1.8403113e-38
1036.65 -3685.4199 -251.864 1.8403113e-38
1974.295 -314.172 -256.7525 1.8403113e-38
1970.615 -303.04199 -254.3905 1.8403113e-38
1965.98 -295.01801 -251.992 1.8403113e-38
1963.5801 -286.729 -250.35199 1.8403113e-38
2066.4199 -5.6971102 -259.423 1.8403113e-38
1949.36 -274.54199 -244.187 1.8403113e-38
1962.97 -278.27399 -249.325 1.8403113e-38
1948.105 -266.36349 -242.96201 1.8403113e-38
1947.3999 -255.40701 -241.65851 1.8403113e-38
1945.45 -247.35899 -240.203 1.8403113e-38
1999.13 -52.378101 -240.291 1.8403113e-38
2015.03 -37.692001 -244.459 1.8403113e-38
927.68402 -3905.3799 -234.77 1.8403113e-38
1939.14 -243.12399 -237.57899 1.8403113e-38
1944.495 -233.72501 -238.554 1.8403113e-38
1943.21 -225.563 -237.32001 1.8403113e-38
1944.63 -216.9325 -236.987 1.8403113e-38
1942.63 -206.1275 -235.244 1.8403113e-38
1949.08 -190.15601 -235.972 1.8403113e-38
1951.1801 -195.48801 -237.22301 1.8403113e-38
1948.83 -184.603 -235.351 1.8403113e-38
1946.01 -176.6795 -233.599 1.8403113e-38
1944.01 -168.524 -232.11501 1.8403113e-38
1951.78 -160.36 -234.05499 1.8403113e-38
1948.21 -152.59549 -232.056 1.8403113e-38
1953.6 -141.72301 -232.90199 1.8403113e-38
1952.04 -136.403 -231.84399 1.8403113e-38
1957.615 -125.14951 -232.71851 1.8403113e-38
1961.24 -114.408 -232.957 1.8403113e-38
1961.25 -108.312 -232.373 1.8403113e-38
1972.66 -97.170303 -235.306 1.8403113e-38
1975.8999 -86.178848 -235.38849 1.8403113e-38
1986.92 -71.5485 -237.84801 1.8403113e-38
1989.08 -63.677399 -237.849 1.8403113e-38
-130.38 -7615.7402 -220.228 1.8403113e-38
927.50201 -3670.4199 -212.108 1.8403113e-38
2284.1201 1295.2 -210.72 1.8403113e-38
-194.62 -7618.1699 -197.91 1.8403113e-38
641.13702 -4536.9902 -194.93201 1.8403113e-38
925.073 -3490.22 -193.923 1.8403113e-38
608.69897 -4515.5298 -181.48199 1.8403113e-38
2153.25 1090.39 -184.478 1.8403113e-38
-254.315 -7612.7798 -176.438 1.8403113e-38
922.59998 -3321.8301 -176.85899 1.8403113e-38
2121.26 1088.25 -173.455 1.8403113e-38
2136.9299 1089.58 -178.82899 1.8403113e-38
502.03699 -4698.6802 -161.657 1.8403113e-38
571.26801 -4531.4199 -169.871 1.8403113e-38
901.336 -3301.8601 -167.474 1.8403113e-38
2085.47 1077.39 -161.935 1.8403113e-38
2105.55 1087.95 -167.968 1.8403113e-38
2198.3201 1441.41 -166.536 1.8403113e-38
2217.96 1524.0601 -165.483 1.8403113e-38
2231.3301 1594.05 -163.442 1.8403113e-38
-317.384 -7608.1401 -153.85201 1.8403113e-38
875.98901 -3301.27 -158.519 1.8403113e-38
2069.95 1076.6899 -156.556 1.8403113e-38
2057.27 1080 -151.785 1.8403113e-38
2054.8 1105.95 -148.423 1.8403113e-38
-377.30499 -7602.6001 -132.285 1.8403113e-38
1966.23 1036.96 -123.968 1.8403113e-38
2167.99 1773.05 -123.991 1.8403113e-38
2173.77 1840.5699 -119.526 1.8403113e-38
2220.71 2026.98 -118.073 1.8403113e-38
2215.0901 2071.71 -111.798 1.8403113e-38
-440.63199 -7597.73 -109.587 1.8403113e-38
1835.34 790.409 -101.734 1.8403113e-38
1848.4301 794.40198 -105.945 1.8403113e-38
1944.38 1151.0699 -105.32 1.8403113e-38
2194.74 2079.05 -103.951 1.8403113e-38
1829.27 801.771 -98.511101 1.8403113e-38
1823.7 816.078 -95.179703 1.8403113e-38
2171.1699 2073.54 -96.204903 1.8403113e-38
-502.54401 -7598.7998 -87.956497 1.8403113e-38
2148 2071.9099 -88.228104 1.8403113e-38
2129.22 2080.21 -80.839996 1.8403113e-38
2105.24 2075.27 -72.896202 1.8403113e-38
-563.90698 -7584.9702 -65.086601 1.8403113e-38
2082.9399 2071.7 -65.412598 1.8403113e-38
2059.77 2068.1899 -57.615398 1.8403113e-38
-626.19598 -7585.8301 -43.303398 1.8403113e-38
1731.37 1025.27 -42.647598 1.8403113e-38
1778.3101 1147.14 -47.402599 1.8403113e-38
