# .PCD v0.7 - Point Cloud Data file format
VERSION 0.7
FIELDS x y z rgb
SIZE 4 4 4 4
TYPE F F F F
COUNT 1 1 1 1
WIDTH 314
HEIGHT 1
VIEWPOINT 0 0 0 1 0 0 0
POINTS 314
DATA ascii
773.20001 -2436.6101 -430.203 1.8403113e-38
1318.47 -2016.33 -430.80301 1.8403113e-38
1345.36 -1996.45 -431.078 1.8403113e-38
1371.75 -1972.28 -430.00601 1.8403113e-38
1397.02 -1957.3199 -431.33301 1.8403113e-38
1421.71 -1948.6899 -434.35001 1.8403113e-38
1430.1 -1930.4 -430.961 1.8403113e-38
1454.12 -1920.3101 -433.409 1.8403113e-38
1446.02 -1918.51 -431.08401 1.8403113e-38
1469.5601 -1899.5 -430.862 1.8403113e-38
1477.5 -1898.3199 -432.29401 1.8403113e-38
1492.72 -1885.88 -432.10501 1.8403113e-38
1500.42 -1881.73 -432.629 1.8403113e-38
1522.6801 -1862.89 -432.16901 1.8403113e-38
1537.24 -1850.89 -431.96201 1.8403113e-38
1543.96 -1838.95 -430.02399 1.8403113e-38
1565.4 -1824.24 -430.57001 1.8403113e-38
1579.85 -1817.48 -431.84399 1.8403113e-38
1586.84 -1813.01 -432.117 1.8403113e-38
1603.535 -1796.155 -430.987 1.8403113e-38
1624.4299 -1785.27 -432.51251 1.8403113e-38
1644.7849 -1772.655 -433.41998 1.8403113e-38
1664.705 -1759.275 -434.00848 1.8403113e-38
1684.64 -1747.4651 -435.05402 1.8403113e-38
1703.95 -1733.9651 -435.474 1.8403113e-38
1727.09 -1722.8 -437.418 1.8403113e-38
1718.49 -1716.66 -433.73599 1.8403113e-38
1739.1 -1710.47 -436.547 1.8403113e-38
1744.5699 -1704.58 -436.07401 1.8403113e-38
1756.51 -1692.99 -435.401 1.8403113e-38
1763.63 -1693.4399 -437.116 1.8403113e-38
1776.3999 -1673.6851 -434.27753 1.8403113e-38
1795.1 -1662.97 -435.36249 1.8403113e-38
1809.79 -1650.97 -435.18301 1.8403113e-38
1815.79 -1648.5 -435.81201 1.8403113e-38
1827.6899 -1638.85 -435.686 1.8403113e-38
1831.63 -1631.01 -434.30801 1.8403113e-38
1845.14 -1617.255 -433.362 1.8403113e-38
1863.01 -1614.71 -436.61099 1.8403113e-38
1865.84 -1605.09 -434.474 1.8403113e-38
1876 -1592.28 -433.05301 1.8403113e-38
1880.05 -1586.15 -432.19199 1.8403113e-38
1895.33 -1577.87 -433.215 1.8403113e-38
1912.53 -1573.62 -435.82501 1.8403113e-38
1913.84 -1562.33 -432.87201 1.8403113e-38
1931.84 -1553 -434.19699 1.8403113e-38
1922.41 -1547.38 -430.478 1.8403113e-38
1943.63 -1538.125 -432.54449 1.8403113e-38
1957.37 -1527.27 -432.483 1.8403113e-38
1964.21 -1527.67 -434.12299 1.8403113e-38
1975.895 -1513.27 -432.58398 1.8403113e-38
1986.85 -1497.9301 -430.612 1.8403113e-38
1992.63 -1496.5699 -431.508 1.8403113e-38
2005.29 -1489.78 -432.379 1.8403113e-38
2011.02 -1488.35 -433.24301 1.8403113e-38
2022.6599 -1474.63 -431.8895 1.8403113e-38
2035.12 -1462.33 -431.129 1.8403113e-38
2042.8 -1463.91 -433.29401 1.8403113e-38
2054.2549 -1450.2 -431.90051 1.8403113e-38
2069.3301 -1441.6801 -432.811 1.8403113e-38
2077.5601 -1443.8101 -435.25699 1.8403113e-38
2088.75 -1434.29 -435.01401 1.8403113e-38
2089.6201 -1426.5601 -432.98199 1.8403113e-38
2105.03 -1418.21 -434.01453 1.8403113e-38
2117.4299 -1405.9399 -433.24899 1.8403113e-38
2121.5 -1402.64 -433.20599 1.8403113e-38
2138.5049 -1395.8999 -435.05551 1.8403113e-38
2151.8201 -1384.5699 -434.76501 1.8403113e-38
2160.0801 -1386.12 -437.04901 1.8403113e-38
2166.28 -1366.835 -432.88501 1.8403113e-38
2186.3 -1362.62 -436.134 1.8403113e-38
2191.3301 -1360.52 -436.64801 1.8403113e-38
2203.1851 -1347.395 -435.51501 1.8403113e-38
2216.21 -1335.42 -434.97299 1.8403113e-38
2223.1101 -1335.17 -436.44101 1.8403113e-38
2230.49 -1321.12 -434.04199 1.8403113e-38
2235.3 -1318.86 -434.461 1.8403113e-38
2244.53 -1306.59 -432.991 1.8403113e-38
2251.3501 -1306.1801 -434.392 1.8403113e-38
2265.6001 -1295.02 -434.35651 1.8403113e-38
2278.3401 -1282.36 -433.552 1.8403113e-38
2287.26 -1283.5601 -435.888 1.8403113e-38
2299.03 -1273.02 -435.47699 1.8403113e-38
2302.1101 -1269.33 -435.10001 1.8403113e-38
2315.98 -1260.29 -435.591 1.8403113e-38
2318.23 -1255.98 -434.853 1.8403113e-38
2332.72 -1244.1899 -434.69202 1.8403113e-38
2345.5901 -1231.01 -433.76901 1.8403113e-38
2356.05 -1232.76 -436.60199 1.8403113e-38
2365.8701 -1220.04 -435.13 1.8403113e-38
2370.1399 -1217.29 -435.29099 1.8403113e-38
2386.2148 -1205.855 -435.58499 1.8403113e-38
2403.8101 -1195.11 -436.41501 1.8403113e-38
2399.1899 -1186.62 -432.94 1.8403113e-38
3144.03 -602.229 -430.80399 1.8403113e-38
3187.0801 -572.87598 -431.952 1.8403113e-38
3220.8899 -542.263 -430.67899 1.8403113e-38
-318.79099 -3263.9199 -424.862 1.8403113e-38
-142.99699 -3114.97 -421.186 1.8403113e-38
-100.353 -3110.23 -429.327 1.8403113e-38
-51.833099 -3060.1201 -425.72299 1.8403113e-38
11.2847 -3017.29 -427.46701 1.8403113e-38
52.934299 -2975.6001 -424.75299 1.8403113e-38
110.642 -2937.05 -426.52399 1.8403113e-38
145.793 -2904.01 -424.85199 1.8403113e-38
197.03999 -2872.6201 -427.242 1.8403113e-38
234.00301 -2833.6299 -424.26001 1.8403113e-38
282.733 -2802.5801 -426.189 1.8403113e-38
311.827 -2776.04 -425.03699 1.8403113e-38
355.61499 -2750.8201 -427.53799 1.8403113e-38
384.77701 -2721.9299 -425.72601 1.8403113e-38
424.75201 -2700.9099 -428.58899 1.8403113e-38
451.40302 -2675.04 -427.08301 1.8403113e-38
491.10501 -2651.22 -429.078 1.8403113e-38
517.38599 -2623.9299 -427.08401 1.8403113e-38
553.54797 -2604.52 -429.56 1.8403113e-38
579.82599 -2574.9299 -426.90302 1.8403113e-38
613.41199 -2558.24 -429.58701 1.8403113e-38
636.63501 -2533.6399 -427.68301 1.8403113e-38
670.034 -2514.3 -429.56201 1.8403113e-38
692.18402 -2490.1899 -427.561 1.8403113e-38
726.34003 -2465.4399 -428.05301 1.8403113e-38
748.44702 -2439.0801 -425.396 1.8403113e-38
795.94098 -2406.1799 -426.51599 1.8403113e-38
824.24799 -2391.03 -428.466 1.8403113e-38
840.91302 -2376.02 -427.86099 1.8403113e-38
870.00598 -2355.5701 -428.46201 1.8403113e-38
885.29498 -2343.0801 -428.27399 1.8403113e-38
912.72101 -2324.8 -429.129 1.8403113e-38
930.07501 -2303.6101 -426.897 1.8403113e-38
955.052 -2290.3601 -428.65302 1.8403113e-38
970.508 -2273.5901 -427.272 1.8403113e-38
996.82898 -2252.25 -426.99799 1.8403113e-38
1009.8 -2242.78 -427.16599 1.8403113e-38
1034.64 -2223.73 -427.22 1.8403113e-38
1047.9399 -2211.22 -426.58301 1.8403113e-38
1071.59 -2193.55 -426.772 1.8403113e-38
1085.3199 -2177.02 -425.07599 1.8403113e-38
1105.24 -2173.1499 -428.40399 1.8403113e-38
1118.73 -2155.47 -426.32101 1.8403113e-38
1140.49 -2139.73 -426.642 1.8403113e-38
1152.39 -2127.5801 -425.79901 1.8403113e-38
1172.21 -2119.0601 -427.763 1.8403113e-38
1184.5601 -2101.95 -425.59299 1.8403113e-38
1204.65 -2088.23 -426.12601 1.8403113e-38
1213.92 -2088.22 -428.18701 1.8403113e-38
1234.28 -2069.3201 -427.28699 1.8403113e-38
1244.1801 -2063.4099 -427.79199 1.8403113e-38
1263.11 -2050.8601 -428.401 1.8403113e-38
1273.76 -2036.16 -426.54599 1.8403113e-38
1291.77 -2027.1 -427.95099 1.8403113e-38
1300.99 -2022.84 -428.78201 1.8403113e-38
1328.13 -2004.25 -429.483 1.8403113e-38
1354.6801 -1984.25 -429.646 1.8403113e-38
1380.59 -1962.86 -429.26501 1.8403113e-38
1405.64 -1945.87 -429.95901 1.8403113e-38
1514.83 -1861.38 -429.98599 1.8403113e-38
1557.9 -1824.83 -429.06699 1.8403113e-38
2397.28 -1166.26 -426.65799 1.8403113e-38
2394.8301 -1159.46 -424.15399 1.8403113e-38
3128.03 -607.51599 -428.758 1.8403113e-38
3170.21 -578.58301 -429.83401 1.8403113e-38
3202.1899 -548.39203 -428.27399 1.8403113e-38
3234.6599 -517.138 -426.517 1.8403113e-38
3246.3899 -510.81799 -427.314 1.8403113e-38
3275.4099 -484.41199 -426.18399 1.8403113e-38
3300.6899 -477.04199 -429.698 1.8403113e-38
3298.02 -451.465 -421.74301 1.8403113e-38
-239.59 -3172.53 -416.22 1.8403113e-38
-170.021 -3128 -418.91299 1.8403113e-38
2394.0801 -1140.3199 -418.479 1.8403113e-38
2396.3101 -1136.5601 -417.89499 1.8403113e-38
2395.4102 -1115.215 -411.55301 1.8403113e-38
3297.73 -445.34399 -419.91699 1.8403113e-38
2394.26 -1091.76 -404.54651 1.8403113e-38
2986.6899 -626.22998 -402.64001 1.8403113e-38
2386.73 -1063.27 -394.67099 1.8403113e-38
2390.8201 -1069.92 -397.495 1.8403113e-38
2393.74 -1047.3301 -391.646 1.8403113e-38
2386.3 -1022.365 -382.8045 1.8403113e-38
2904.48 -627.97803 -384.819 1.8403113e-38
-190.252 -3006.48 -379.436 1.8403113e-38
2385.3401 -1003.11 -377.04901 1.8403113e-38
2385.03 -998.91498 -375.77399 1.8403113e-38
2382.52 -981.354 -370.16101 1.8403113e-38
2381.1899 -976.883 -368.578 1.8403113e-38
2386.25 -962.797 -365.65399 1.8403113e-38
2375.96 -954.80103 -361.05899 1.8403113e-38
2379.8601 -940.43402 -357.79401 1.8403113e-38
2375.5701 -935.13898 -355.31601 1.8403113e-38
2380.1101 -921.12799 -352.29501 1.8403113e-38
2374.77 -915.65002 -349.52899 1.8403113e-38
2379.0601 -901.65002 -346.45599 1.8403113e-38
2375.3799 -896.96698 -344.28799 1.8403113e-38
2713.77 -638.87799 -345.448 1.8403113e-38
-32.049 -2744.79 -339.39899 1.8403113e-38
2369.4299 -879.64001 -337.97699 1.8403113e-38
2371.96 -877.21802 -337.84399 1.8403113e-38
2366.6101 -860.39697 -331.811 1.8403113e-38
2677.3701 -640.58099 -337.82501 1.8403113e-38
2362.6299 -856.039 -329.66901 1.8403113e-38
2365.23 -841.92603 -326.18799 1.8403113e-38
2368.49 -839.83197 -326.311 1.8403113e-38
2365.9849 -822.8385 -320.86353 1.8403113e-38
2367.22 -804.14899 -315.763 1.8403113e-38
2370.6599 -807.88898 -317.604 1.8403113e-38
2365.6001 -786.409 -310.29599 1.8403113e-38
2550.1201 -649.70001 -312.086 1.8403113e-38
-187.229 -2733.98 -301.702 1.8403113e-38
-169.173 -2734.26 -305.80499 1.8403113e-38
2361.6599 -788.255 -309.94901 1.8403113e-38
2358.8201 -770.47601 -304.20099 1.8403113e-38
2361.74 -768.43201 -304.26401 1.8403113e-38
2365.0901 -754.78101 -301.082 1.8403113e-38
2532.2 -651.42902 -308.59 1.8403113e-38
-32.774601 -2597.5801 -296.87701 1.8403113e-38
31.583799 -2531.6799 -292.26001 1.8403113e-38
93.225601 -2490.22 -294.07101 1.8403113e-38
109.336 -2489.8999 -297.56799 1.8403113e-38
2358.47 -750.87598 -298.48199 1.8403113e-38
2362.0249 -736.05499 -295.0105 1.8403113e-38
2364.4299 -721.01398 -291.21799 1.8403113e-38
2436.6599 -661.83301 -290.29001 1.8403113e-38
2444.8899 -659.96802 -291.58701 1.8403113e-38
2706.1399 -467.673 -294.48499 1.8403113e-38
2360.4299 -717.90399 -289.43301 1.8403113e-38
2357.26 -702.177 -284.20099 1.8403113e-38
2363.7651 -686.64148 -281.18048 1.8403113e-38
2362.52 -671.30902 -276.491 1.8403113e-38
2366.8999 -669.479 -276.94101 1.8403113e-38
-64.552597 -2525.52 -269.061 1.8403113e-38
-60.394402 -2498.05 -262.08401 1.8403113e-38
-78.154297 -2477.22 -252.13 1.8403113e-38
2524.9399 -479.815 -257.591 1.8403113e-38
-134.24899 -2482 -241.00301 1.8403113e-38
-95.314499 -2477.0801 -248.265 1.8403113e-38
-147.73199 -2476.8899 -236.52901 1.8403113e-38
-173.37399 -2464.9399 -227.375 1.8403113e-38
-60.598499 -2312.96 -208.78 1.8403113e-38
-63.136299 -2277.99 -198.153 1.8403113e-38
-60.5466 -2255.9099 -192.377 1.8403113e-38
2213.325 -493.86749 -192.179 1.8403113e-38
-60.671398 -2219.71 -181.931 1.8403113e-38
-42.716499 -2181.6599 -174.98399 1.8403113e-38
2155.75 -487.77802 -177.59399 1.8403113e-38
2160.2 -486.39499 -178.189 1.8403113e-38
2139.3201 -477.616 -171.008 1.8403113e-38
2141.77 -476.52899 -171.241 1.8403113e-38
-36.751598 -2140.8501 -164.571 1.8403113e-38
2135.1099 -465.79651 -166.67001 1.8403113e-38
2118.02 -456.34201 -160.14 1.8403113e-38
2125.3999 -455.72 -161.605 1.8403113e-38
-42.021 -2128.6499 -159.88699 1.8403113e-38
2106.2051 -447.06702 -154.8385 1.8403113e-38
-34.246399 -2087.49 -149.77499 1.8403113e-38
-42.004101 -2078.1899 -145.37199 1.8403113e-38
2089.4399 -439.06699 -148.8 1.8403113e-38
2090.72 -438.354 -148.88 1.8403113e-38
2082.5149 -428.9675 -144.35001 1.8403113e-38
-80.627197 -2084.5801 -138.60001 1.8403113e-38
-90.4813 -2077.1799 -134.27699 1.8403113e-38
2066.4302 -410.328 -135.39999 1.8403113e-38
2074.3101 -419.58051 -139.81949 1.8403113e-38
2059.28 -401.20499 -131.18201 1.8403113e-38
2062.28 -400.10999 -131.536 1.8403113e-38
-150.839 -2085.99 -123.357 1.8403113e-38
-129.411 -2082.6001 -127.157 1.8403113e-38
2054.9751 -391.159 -127.331 1.8403113e-38
2039.98 -384.71799 -122.135 1.8403113e-38
2046.66 -382.46201 -122.977 1.8403113e-38
-185.064 -2085.51 -115.592 1.8403113e-38
-192.73399 -2075.5601 -111.02 1.8403113e-38
2047.125 -371.25848 -119.855 1.8403113e-38
2029.58 -366.16599 -114.48 1.8403113e-38
2031.4301 -365.41901 -114.679 1.8403113e-38
2029.28 -355.22699 -111.266 1.8403113e-38
2032.01 -354.12399 -111.557 1.8403113e-38
-355.591 -2189.96 -107.639 1.8403113e-38
-330.87299 -2149.99 -101.645 1.8403113e-38
2032.48 -342.83301 -108.414 1.8403113e-38
2028.97 -332.89401 -104.771 1.8403113e-38
2041.64 -339.16299 -109.398 1.8403113e-38
2025.28 -323.02802 -101.109 1.8403113e-38
2039.87 -328.35101 -105.893 1.8403113e-38
2032.4 -319.901 -101.797 1.8403113e-38
-336.15302 -2120.4399 -91.966202 1.8403113e-38
2026.3 -311.03052 -97.883453 1.8403113e-38
2024.3101 -300.22699 -94.3311 1.8403113e-38
2025.51 -299.76199 -94.465401 1.8403113e-38
2026.4399 -287.42297 -91.1222 1.8403113e-38
-344.67801 -2110.48 -87.201202 1.8403113e-38
2029.485 -273.8465 -87.895004 1.8403113e-38
2030.9099 -260.80551 -84.459503 1.8403113e-38
2034.24 -246.455 -81.072403 1.8403113e-38
3588.23 953.83502 -82.063301 1.8403113e-38
3689.55 1014.58 -87.167801 1.8403113e-38
-457.37299 -2154.22 -74.667297 1.8403113e-38
-370.67099 -2098.97 -78.094902 1.8403113e-38
2032.9 -234.39301 -77.303452 1.8403113e-38
2033.0349 -221.295 -73.564697 1.8403113e-38
2042.3199 -202.149 -70.125999 1.8403113e-38
-929.77698 -2483.6001 -64.151001 1.8403113e-38
-817.315 -2412.76 -68.832703 1.8403113e-38
2036.2 -206.22099 -69.9338 1.8403113e-38
2042.135 -188.686 -66.209801 1.8403113e-38
2040.46 -175.755 -62.116348 1.8403113e-38
3428.3201 879.95599 -67.679604 1.8403113e-38
3415.6699 880.49402 -64.705399 1.8403113e-38
-587.263 -2170.7 -50.4589 1.8403113e-38
2060.7949 -147.5645 -58.537399 1.8403113e-38
3391.5801 902.81201 -52.913601 1.8403113e-38
3395.6101 915.76703 -50.0858 1.8403113e-38
-546.29602 -2120.8401 -45.241901 1.8403113e-38
3683.24 1181.42 -37.753201 1.8403113e-38
