# .PCD v0.7 - Point Cloud Data file format
VERSION 0.7
FIELDS x y z rgb
SIZE 4 4 4 4
TYPE F F F F
COUNT 1 1 1 1
WIDTH 316
HEIGHT 1
VIEWPOINT 0 0 0 1 0 0 0
POINTS 316
DATA ascii
2942.74 -1865.3 -433.564 1.8403113e-38
2944 -1849.29 -431.19601 1.8403113e-38
2957.53 -1827.4399 -431.74399 1.8403113e-38
2969.5 -1809.54 -432.478 1.8403113e-38
2975.1602 -1792.22 -431.2915 1.8403113e-38
2986.1799 -1771.46 -431.22501 1.8403113e-38
2993.155 -1754.1951 -430.47 1.8403113e-38
3004.5601 -1737.58 -431.245 1.8403113e-38
3016.5 -1716.3149 -431.38449 1.8403113e-38
3029 -1694.84 -431.67001 1.8403113e-38
3045.5601 -1675.7 -433.65701 1.8403113e-38
3049.5701 -1654.89 -431.336 1.8403113e-38
3054.73 -1638.49 -430.14999 1.8403113e-38
3068.8701 -1613.78 -430.397 1.8403113e-38
3083.25 -1593.01 -431.40601 1.8403113e-38
3090.6499 -1571.63 -430.07501 1.8403113e-38
3114.8899 -1528.09 -430.29599 1.8403113e-38
3127.9099 -1505.6899 -430.58499 1.8403113e-38
3153.79 -1459.51 -430.87601 1.8403113e-38
3192.99 -1386.58 -430.79901 1.8403113e-38
3205.885 -1363.5649 -430.944 1.8403113e-38
3223.3301 -1334.67 -431.52701 1.8403113e-38
3234.97 -1308.39 -430.70401 1.8403113e-38
3252.76 -1280.38 -431.54999 1.8403113e-38
3261.73 -1258.33 -430.603 1.8403113e-38
3271.9199 -1251.3 -432.64999 1.8403113e-38
3285.8401 -1222.6 -432.138 1.8403113e-38
2234.72 -3098 -420.31299 1.8403113e-38
2274.8701 -3032.1101 -421.758 1.8403113e-38
2293.1101 -2997.48 -421.60101 1.8403113e-38
2298.4299 -2987.8899 -421.646 1.8403113e-38
2310.6001 -2963.6399 -421.34201 1.8403113e-38
2315.6399 -2954.04 -421.29599 1.8403113e-38
2329.3999 -2937.0701 -422.763 1.8403113e-38
2333.6201 -2925.6101 -422.12799 1.8403113e-38
2346.5601 -2907.5601 -423.147 1.8403113e-38
2350.8 -2897.01 -422.67599 1.8403113e-38
2360.3301 -2870.6201 -421.16 1.8403113e-38
2366.53 -2866.45 -422.42099 1.8403113e-38
2377.72 -2846.3301 -422.521 1.8403113e-38
2381.05 -2834.8899 -421.608 1.8403113e-38
2390.95 -2812.8999 -420.96701 1.8403113e-38
2395.75 -2805.96 -421.30499 1.8403113e-38
2407.25 -2789.24 -422.09 1.8403113e-38
2412.24 -2783.1699 -422.63699 1.8403113e-38
2425.22 -2770.72 -424.63699 1.8403113e-38
2426.5901 -2756.6899 -422.64899 1.8403113e-38
2438.3899 -2742.3401 -423.94199 1.8403113e-38
2439.04 -2727.5 -421.57999 1.8403113e-38
2452.03 -2716.52 -423.83801 1.8403113e-38
2455.26 -2707.8 -423.36099 1.8403113e-38
2465.8401 -2692.3401 -424.07199 1.8403113e-38
2465.4099 -2676.78 -421.241 1.8403113e-38
2478.1499 -2666.3601 -423.51501 1.8403113e-38
2480.5 -2656.8201 -422.616 1.8403113e-38
2486.1299 -2633.6101 -420.39999 1.8403113e-38
2503.8 -2613.2949 -422.54102 1.8403113e-38
2515.3701 -2595.6299 -423.186 1.8403113e-38
2525.1001 -2569.49 -421.77499 1.8403113e-38
2530.5601 -2566.5901 -423.022 1.8403113e-38
2538.26 -2549.79 -422.57901 1.8403113e-38
2540.02 -2541.25 -421.66101 1.8403113e-38
2551.4951 -2525.3198 -422.57703 1.8403113e-38
2557.8301 -2502.21 -420.604 1.8403113e-38
2564.6201 -2501.55 -422.66299 1.8403113e-38
2574.5 -2489.22 -423.69199 1.8403113e-38
2572.3301 -2476.1599 -420.73901 1.8403113e-38
2587.2051 -2466.0249 -423.74451 1.8403113e-38
2595.99 -2443.2 -422.60602 1.8403113e-38
2608.98 -2430.8 -424.61801 1.8403113e-38
2609.02 -2421.76 -423.064 1.8403113e-38
2620.23 -2411.8701 -424.94299 1.8403113e-38
2621.3 -2404.3301 -423.98001 1.8403113e-38
2629.8401 -2391.4099 -424.47699 1.8403113e-38
2628.25 -2381.0701 -422.17599 1.8403113e-38
2637.73 -2369.5 -423.20999 1.8403113e-38
2644.8201 -2369.0601 -425.40201 1.8403113e-38
2647.0601 -2349.6699 -422.76401 1.8403113e-38
2651.51 -2346.4099 -423.62299 1.8403113e-38
2662.76 -2332.8999 -424.88348 1.8403113e-38
2674.2949 -2315.8701 -425.63049 1.8403113e-38
2684.4849 -2297.73 -425.7515 1.8403113e-38
2691.22 -2280.22 -424.875 1.8403113e-38
2696.04 -2277.47 -425.94299 1.8403113e-38
2702.1299 -2263.1699 -425.41699 1.8403113e-38
2702.6399 -2256.6299 -424.45001 1.8403113e-38
2713.28 -2243.03 -425.49951 1.8403113e-38
2725.6851 -2227.52 -426.785 1.8403113e-38
2732.98 -2211.21 -426.29599 1.8403113e-38
2736.05 -2207.1201 -426.57199 1.8403113e-38
2739.6299 -2191.3501 -424.98999 1.8403113e-38
2744.1001 -2188.4099 -425.91101 1.8403113e-38
2751.95 -2175.96 -426.26801 1.8403113e-38
2761.6799 -2176.8401 -429.53601 1.8403113e-38
2763.51 -2156.9199 -426.67349 1.8403113e-38
2771.97 -2141.8601 -426.77499 1.8403113e-38
2771.5701 -2135.6399 -425.56799 1.8403113e-38
2784.29 -2126.4099 -428.04401 1.8403113e-38
2782.1899 -2119.2 -426.12399 1.8403113e-38
2787.6201 -2105.22 -425.44199 1.8403113e-38
2792.55 -2102.5801 -426.56299 1.8403113e-38
2796.1499 -2087.52 -425.10901 1.8403113e-38
2807.48 -2088.6899 -428.935 1.8403113e-38
2811.7 -2073.95 -427.73499 1.8403113e-38
2812.4399 -2068.8501 -427.09 1.8403113e-38
2817.22 -2054.54 -426.142 1.8403113e-38
2824.4399 -2053.1001 -428.20499 1.8403113e-38
2827.3501 -2037.77 -426.48401 1.8403113e-38
2831.22 -2034.48 -427.151 1.8403113e-38
2925.1499 -1864.5699 -427.80801 1.8403113e-38
2942.5801 -1844.24 -429.86899 1.8403113e-38
2949.9299 -1830.01 -429.75699 1.8403113e-38
2958.29 -1811.3199 -429.19901 1.8403113e-38
2974.1201 -1773.42 -427.703 1.8403113e-38
3002.5801 -1732.8 -429.78 1.8403113e-38
3021.79 -1698.28 -429.95801 1.8403113e-38
3030.8799 -1678.42 -429.42801 1.8403113e-38
3039.6599 -1658.3101 -428.755 1.8403113e-38
3055.1201 -1634.15 -429.52399 1.8403113e-38
3062.8799 -1617.78 -429.173 1.8403113e-38
3072.5901 -1596.9301 -428.67099 1.8403113e-38
3082.9199 -1575.8101 -428.32199 1.8403113e-38
3091.95 -1554.36 -427.50201 1.8403113e-38
3101.51 -1550.0601 -429.81699 1.8403113e-38
3110.1699 -1532.54 -429.556 1.8403113e-38
3117.55 -1510.4 -428.08701 1.8403113e-38
3133.5151 -1485.405 -428.87 1.8403113e-38
3144.5701 -1464.58 -428.802 1.8403113e-38
3155.6001 -1441.13 -428.27399 1.8403113e-38
3154.23 -1436.79 -427.086 1.8403113e-38
3152.8899 -1418.65 -423.51501 1.8403113e-38
3160.96 -1413.38 -425.18701 1.8403113e-38
3183.1201 -1392.3199 -428.63599 1.8403113e-38
3213.7 -1340.84 -429.51099 1.8403113e-38
3229.25 -1314.11 -429.86099 1.8403113e-38
3242.4299 -1287.16 -429.41599 1.8403113e-38
3274.8501 -1230.0699 -429.91 1.8403113e-38
3290.26 -1200.6 -429.74301 1.8403113e-38
3293.6101 -1194.77 -429.80701 1.8403113e-38
3289.24 -1174.75 -424.94 1.8403113e-38
3293.4099 -1168.63 -425.216 1.8403113e-38
1757.7 -3931.5801 -411.91299 1.8403113e-38
1915.99 -3653.27 -414.405 1.8403113e-38
1925.84 -3624.0601 -412.50101 1.8403113e-38
1950.33 -3602.46 -416.603 1.8403113e-38
1959.42 -3571.1799 -414.099 1.8403113e-38
1982.42 -3537.4199 -415.616 1.8403113e-38
1991.15 -3514.8999 -414.51001 1.8403113e-38
2070.3 -3385.99 -417.53299 1.8403113e-38
2077.6699 -3367.1699 -416.634 1.8403113e-38
2097.71 -3346.8101 -419.526 1.8403113e-38
2103.9299 -3322.1101 -417.23901 1.8403113e-38
2122.6399 -3297.5901 -418.98499 1.8403113e-38
2129.4199 -3281.5901 -418.384 1.8403113e-38
2147.1499 -3255.8601 -419.608 1.8403113e-38
2153.79 -3241.74 -419.289 1.8403113e-38
2170.05 -3211.9299 -419.33401 1.8403113e-38
2175.3201 -3192 -417.56799 1.8403113e-38
2192.47 -3172.5801 -419.69699 1.8403113e-38
2196.71 -3149.77 -417.10501 1.8403113e-38
2212.9099 -3129.1899 -418.73099 1.8403113e-38
2218.5601 -3115.9299 -418.24301 1.8403113e-38
2240.25 -3085.6699 -419.94601 1.8403113e-38
2253.6001 -3058.0601 -419.44199 1.8403113e-38
2258.77 -3045.71 -418.95901 1.8403113e-38
2278.04 -3013.1499 -419.48999 1.8403113e-38
2488.21 -2624.1299 -419.42599 1.8403113e-38
2513.1399 -2579.6399 -419.702 1.8403113e-38
1495.38 -4358 -401.75699 1.8403113e-38
1552.4399 -4283.54 -407.13699 1.8403113e-38
1572.35 -4226.27 -403.595 1.8403113e-38
1609.22 -4187.3599 -408.66 1.8403113e-38
1626.9301 -4137.6802 -405.729 1.8403113e-38
1663.09 -4086.22 -408.39899 1.8403113e-38
1679.11 -4041.21 -405.73499 1.8403113e-38
1712.09 -4003.8799 -409.82999 1.8403113e-38
1726.45 -3966.54 -407.96301 1.8403113e-38
1771.13 -3894.05 -409.71399 1.8403113e-38
1890.6801 -3633.05 -402.80301 1.8403113e-38
1370.28 -4523.04 -390.28201 1.8403113e-38
1435.64 -4432.3101 -395.49899 1.8403113e-38
1454 -4402.1802 -396.16 1.8403113e-38
1516.7 -4300.0601 -398.55301 1.8403113e-38
1329.2 -4544.8999 -380.91299 1.8403113e-38
1401.17 -4425.7002 -383.31699 1.8403113e-38
2808.23 -1842.73 -386.59299 1.8403113e-38
1315.8101 -4540.2002 -375.814 1.8403113e-38
2763.1101 -1845.88 -372.694 1.8403113e-38
2787.28 -1839.97 -379.40701 1.8403113e-38
1813.58 -3547.73 -363.345 1.8403113e-38
1997.74 -3230.8401 -367.44299 1.8403113e-38
2683.73 -1943.26 -364.14099 1.8403113e-38
2746.72 -1844.15 -367.147 1.8403113e-38
1882.4399 -3360.52 -352.98001 1.8403113e-38
2651.03 -1922.5601 -350.08701 1.8403113e-38
2716.5 -1846.84 -357.93799 1.8403113e-38
2636.8799 -1902.46 -342.077 1.8403113e-38
2635.0601 -1897.61 -340.65302 1.8403113e-38
2666.71 -1844.86 -341.65399 1.8403113e-38
2678.1699 -1836.46 -343.86801 1.8403113e-38
1338.89 -4247.6299 -332.548 1.8403113e-38
1862.6899 -3269.6299 -330.91901 1.8403113e-38
2016.8101 -3007.1899 -334.82599 1.8403113e-38
2626.3999 -1880.8199 -334.97601 1.8403113e-38
2634.72 -1880.78 -337.629 1.8403113e-38
2643.8301 -1872.14 -339.052 1.8403113e-38
2638.3401 -1865.97 -336.22601 1.8403113e-38
2645.1799 -1852.58 -336.09799 1.8403113e-38
2651.6599 -1858.98 -339.28 1.8403113e-38
2657.54 -1844.98 -338.737 1.8403113e-38
1833.64 -3269.3201 -321.56799 1.8403113e-38
1854.13 -3264.01 -327.20599 1.8403113e-38
2007.95 -2991.48 -329.26801 1.8403113e-38
1990.22 -2983.03 -322.129 1.8403113e-38
2946.1699 -1246.03 -327.44501 1.8403113e-38
2910.5601 -1252.88 -317.23001 1.8403113e-38
1367.36 -4050.2 -307.48199 1.8403113e-38
2831.6001 -1260.8101 -293.32599 1.8403113e-38
2810.0701 -1264.53 -287.07501 1.8403113e-38
2757.3701 -1266.8101 -270.59799 1.8403113e-38
2746.0801 -1267.9301 -267.17801 1.8403113e-38
1426.91 -3645.27 -256.439 1.8403113e-38
1417.6801 -3638.8799 -252.37801 1.8403113e-38
2689.9399 -1273.1899 -250.11501 1.8403113e-38
1378.63 -3693.53 -249.33701 1.8403113e-38
1369.99 -3684.0601 -244.931 1.8403113e-38
2685.1399 -1272.59 -248.47501 1.8403113e-38
1332.13 -3684.8501 -232.948 1.8403113e-38
1353.64 -3644.3101 -232.815 1.8403113e-38
2626.3501 -1278.6801 -230.70799 1.8403113e-38
2634.76 -1277.61 -233.216 1.8403113e-38
1306.01 -3682.1899 -224.125 1.8403113e-38
1296.85 -3675.3201 -220.004 1.8403113e-38
1044.51 -4123.96 -216.88901 1.8403113e-38
1042.67 -4089.6001 -210.353 1.8403113e-38
1265.76 -3689.3799 -212.48399 1.8403113e-38
2582.0801 -1282.22 -217.1465 1.8403113e-38
1174.21 -3820.8 -205.92599 1.8403113e-38
1251.51 -3699.5601 -209.683 1.8403113e-38
2545.1851 -1283.4 -205.5385 1.8403113e-38
1232.01 -3673.8799 -198.994 1.8403113e-38
2508.8401 -1284.97 -194.17599 1.8403113e-38
2515.3 -1283.66 -196.01801 1.8403113e-38
1118.64 -3775.8799 -180.36 1.8403113e-38
2479.135 -1286.33 -184.89999 1.8403113e-38
1121.04 -3735.3501 -174.11099 1.8403113e-38
2447.29 -1289.04 -175.1745 1.8403113e-38
1078.6 -3739.8501 -161.30099 1.8403113e-38
1092.48 -3734.4399 -164.80901 1.8403113e-38
2419.99 -1290.23 -166.63901 1.8403113e-38
2420.1399 -1291.14 -166.845 1.8403113e-38
2401.75 -1288.79 -160.55099 1.8403113e-38
1052.04 -3732.73 -151.56799 1.8403113e-38
2381.335 -1288.625 -153.98801 1.8403113e-38
1039.84 -3733.26 -147.752 1.8403113e-38
2341.3799 -1290.29 -141.481 1.8403113e-38
2356.3201 -1291.73 -146.51401 1.8403113e-38
2344.6399 -1287.8199 -142.09801 1.8403113e-38
895.07202 -3905.3701 -131.202 1.8403113e-38
998.85602 -3731.47 -134.32001 1.8403113e-38
1014.5 -3722.8101 -137.83 1.8403113e-38
2334.7998 -1283.765 -138.2455 1.8403113e-38
2316.46 -1274.76 -130.815 1.8403113e-38
2320.79 -1272.45 -131.80299 1.8403113e-38
2331.125 -1275.85 -135.701 1.8403113e-38
2322.03 -1260.87 -130.194 1.8403113e-38
892.29797 -3881.3101 -126.148 1.8403113e-38
2314.05 -1266.6899 -128.646 1.8403113e-38
2316.45 -1254.49 -127.30251 1.8403113e-38
2318.2749 -1242.6001 -125.8275 1.8403113e-38
2319.03 -1231.1599 -124.0905 1.8403113e-38
2314.8301 -1223.245 -121.374 1.8403113e-38
894.823 -3802.25 -113.269 1.8403113e-38
2308.9299 -1216.635 -118.342 1.8403113e-38
2311.3398 -1203.22 -116.79 1.8403113e-38
2304.7451 -1197.0449 -113.608 1.8403113e-38
2306.9851 -1183.135 -111.918 1.8403113e-38
896.06097 -3771.01 -108.256 1.8403113e-38
2300.4399 -1176.755 -108.7195 1.8403113e-38
2299.585 -1165.0701 -106.42101 1.8403113e-38
2301.2949 -1150.5449 -104.4555 1.8403113e-38
2295.6401 -1142.9301 -101.3255 1.8403113e-38
894.79498 -3706.03 -96.6007 1.8403113e-38
892.19299 -3684.9199 -92.112396 1.8403113e-38
2289.99 -1121.0699 -95.732498 1.8403113e-38
2296.385 -1128.6 -99.082397 1.8403113e-38
2296.0901 -1115.25 -96.679001 1.8403113e-38
2287.8 -1109.9399 -93.105904 1.8403113e-38
2293.75 -1102.54 -93.726601 1.8403113e-38
2289.9299 -1092.79 -90.818001 1.8403113e-38
2290.48 -1091.3101 -90.735802 1.8403113e-38
893.78198 -3618.45 -81.112198 1.8403113e-38
2288.6201 -1078.54 -87.930801 1.8403113e-38
2286.0649 -1065.75 -84.898605 1.8403113e-38
2283.6399 -1052.88 -81.8946 1.8403113e-38
2286.45 -1048.26 -81.992302 1.8403113e-38
894.87799 -3591.1499 -76.737297 1.8403113e-38
2286.655 -1031.35 -79.130302 1.8403113e-38
2284.47 -1016.38 -75.840347 1.8403113e-38
2284.79 -997.28851 -72.636093 1.8403113e-38
892.26001 -3537.6001 -66.626999 1.8403113e-38
892.69299 -3513.1299 -62.5298 1.8403113e-38
2278.0901 -986.80603 -68.6782 1.8403113e-38
2281.47 -983.34198 -69.157997 1.8403113e-38
2278.8701 -966.22253 -65.362801 1.8403113e-38
2273.75 -953.90698 -61.590401 1.8403113e-38
2278.96 -943.99902 -61.5443 1.8403113e-38
890.83301 -3461.6201 -53.015999 1.8403113e-38
2274.6899 -929.51501 -57.670197 1.8403113e-38
2272.6499 -910.72498 -53.762501 1.8403113e-38
2272.3 -909.25403 -53.396599 1.8403113e-38
889.086 -3442.6001 -49.163502 1.8403113e-38
892.13898 -3385.2 -40.203499 1.8403113e-38
2271.9299 -886.4845 -49.336052 1.8403113e-38
2271.97 -861.84198 -45.080502 1.8403113e-38
2271.8701 -859.492 -44.642799 1.8403113e-38
