# .PCD v0.7 - Point Cloud Data file format
VERSION 0.7
FIELDS x y z rgb
SIZE 4 4 4 4
TYPE F F F F
COUNT 1 1 1 1
WIDTH 336
HEIGHT 1
VIEWPOINT 0 0 0 1 0 0 0
POINTS 336
DATA ascii
2479.6299 -416.811 -420.46201 1.8403113e-38
2483.95 -399.14301 -423.28 1.8403113e-38
2477.5701 -381.17899 -422.30499 1.8403113e-38
2478.52 -367.15302 -423.65701 1.8403113e-38
2469.9199 -351.42401 -421.729 1.8403113e-38
2470.55 -337.336 -422.974 1.8403113e-38
2466.1101 -315.37601 -422.98099 1.8403113e-38
2800.74 -2138.8799 -410.36301 1.8403113e-38
2791.1399 -2079.3899 -411.245 1.8403113e-38
2790.24 -2063.8601 -412.04999 1.8403113e-38
2784.5601 -2049.74 -411.04501 1.8403113e-38
2781.6101 -2033.51 -411.16599 1.8403113e-38
2753.1799 -1898.8 -410.77701 1.8403113e-38
2751.3501 -1888.24 -410.88699 1.8403113e-38
2746.46 -1873.13 -410.23599 1.8403113e-38
2746.4399 -1850.39 -411.875 1.8403113e-38
2743.3301 -1839.78 -411.534 1.8403113e-38
2739.6799 -1825.63 -411.255 1.8403113e-38
2741.8201 -1816.99 -412.64401 1.8403113e-38
2739.72 -1803.51 -412.871 1.8403113e-38
2737.1599 -1793.5 -412.68301 1.8403113e-38
2735.72 -1780.41 -413.116 1.8403113e-38
2732.0801 -1770.28 -412.54999 1.8403113e-38
2732.22 -1757.8 -413.504 1.8403113e-38
2729.3301 -1748.0699 -413.17599 1.8403113e-38
2726.48 -1734.9301 -413.10999 1.8403113e-38
2729.8701 -1726.96 -414.897 1.8403113e-38
2719.3999 -1712.12 -412.23599 1.8403113e-38
2724.5 -1704.63 -414.59799 1.8403113e-38
2718.3999 -1691.0601 -413.40302 1.8403113e-38
2716.8799 -1682.17 -413.505 1.8403113e-38
2713.8799 -1665.23 -413.66199 1.8403113e-38
2712.52 -1648.74 -414.371 1.8403113e-38
2707.9099 -1639.5601 -413.392 1.8403113e-38
2713.21 -1624.3301 -416.38351 1.8403113e-38
2703.3301 -1606.8 -414.12799 1.8403113e-38
2703.1201 -1598.6 -414.647 1.8403113e-38
2704.3 -1586.91 -415.914 1.8403113e-38
2707.72 -1579.1801 -417.69101 1.8403113e-38
2697.4299 -1566.21 -414.95901 1.8403113e-38
2695.0701 -1557.96 -414.71799 1.8403113e-38
2694.8999 -1546.2 -415.509 1.8403113e-38
2692.4199 -1538.05 -415.21399 1.8403113e-38
2686.3999 -1525.91 -413.94501 1.8403113e-38
2682.8501 -1517.85 -413.26199 1.8403113e-38
2685.1001 -1506.33 -414.89801 1.8403113e-38
2691.79 -1498.8199 -417.828 1.8403113e-38
2682.54 -1486.77 -415.39899 1.8403113e-38
2689.1101 -1479.1899 -418.29099 1.8403113e-38
2679.6499 -1467.3101 -415.77899 1.8403113e-38
2682.3301 -1459.63 -417.29001 1.8403113e-38
2678.3301 -1447.9301 -416.70999 1.8403113e-38
2681.8301 -1440.24 -418.51501 1.8403113e-38
2674.155 -1424.86 -416.88751 1.8403113e-38
2668.1599 -1409.58 -415.85699 1.8403113e-38
2675.1799 -1401.6899 -418.931 1.8403113e-38
2666.8401 -1390.39 -416.77301 1.8403113e-38
2667.1599 -1382.86 -417.43399 1.8403113e-38
2665.2 -1371.23 -417.57599 1.8403113e-38
2660.72 -1364.13 -416.492 1.8403113e-38
2658.5601 -1352.55 -416.56201 1.8403113e-38
2661.46 -1344.8101 -418.15601 1.8403113e-38
2650.7 -1334.1899 -415.08701 1.8403113e-38
2655.3501 -1326.23 -417.32001 1.8403113e-38
2641.6299 -1316.1899 -413.15201 1.8403113e-38
2891.72 -2725.5701 -400.35599 1.8403113e-38
2885.1299 -2694.47 -400.254 1.8403113e-38
2883.24 -2674.5701 -401.021 1.8403113e-38
2875.1399 -2643.2 -400.40201 1.8403113e-38
2875.6101 -2626.26 -401.79599 1.8403113e-38
2873.9199 -2601.9399 -402.953 1.8403113e-38
2863.8899 -2575.9299 -401.258 1.8403113e-38
2860.0601 -2550.6499 -401.72299 1.8403113e-38
2811.3 -2305.1299 -402.10001 1.8403113e-38
2814.27 -2293.8301 -403.97601 1.8403113e-38
2813.52 -2275.79 -405.01199 1.8403113e-38
2818.6499 -2266.1899 -407.539 1.8403113e-38
2811.1001 -2243.9099 -406.45599 1.8403113e-38
2809.55 -2230.0901 -406.90701 1.8403113e-38
2808.8 -2212.8701 -407.88501 1.8403113e-38
2802.0901 -2196.1001 -406.70401 1.8403113e-38
2804.21 -2181.1201 -408.54599 1.8403113e-38
2802.9399 -2168.1399 -409.03201 1.8403113e-38
2794.8 -2147.27 -407.63599 1.8403113e-38
2793 -2118.76 -409.061 1.8403113e-38
2791.21 -2106.1201 -409.336 1.8403113e-38
2788.9399 -2089.5701 -409.72501 1.8403113e-38
2771.3401 -2017.51 -408.66199 1.8403113e-38
2726.77 -1901.41 -401.16599 1.8403113e-38
2743.54 -1862.4 -409.97 1.8403113e-38
2198.3601 775.664 -406.43701 1.8403113e-38
3003.6499 -3409.79 -390.758 1.8403113e-38
3004.76 -3371.46 -393.92801 1.8403113e-38
2991.55 -3324.96 -392.582 1.8403113e-38
2990.24 -3285.47 -394.97299 1.8403113e-38
2983.6299 -3249.8201 -395.19501 1.8403113e-38
2977.54 -3206.03 -396.194 1.8403113e-38
2966.3799 -3166.1399 -395.10001 1.8403113e-38
2965.1201 -3130.6499 -397.21799 1.8403113e-38
2953.01 -3091.27 -395.74799 1.8403113e-38
2952.53 -3058.51 -397.948 1.8403113e-38
2939.49 -3019.6299 -396.10999 1.8403113e-38
2943.0901 -2993.29 -399.30301 1.8403113e-38
2930.46 -2956.4099 -397.46701 1.8403113e-38
2930.6299 -2927.3799 -399.62601 1.8403113e-38
2923.05 -2897.6201 -399.077 1.8403113e-38
2914.4199 -2860.1899 -398.70999 1.8403113e-38
2908.1001 -2833.03 -398.42001 1.8403113e-38
2902.49 -2800.4299 -398.77899 1.8403113e-38
2900.26 -2778.6101 -399.56299 1.8403113e-38
2893.1201 -2745.71 -399.39499 1.8403113e-38
2788.23 -2305.96 -393.80801 1.8403113e-38
2704.54 -1924.61 -391.55899 1.8403113e-38
2704.72 -1914.9301 -392.32199 1.8403113e-38
2716.1101 -1906.74 -396.97699 1.8403113e-38
2971.26 -3392.49 -380.45801 1.8403113e-38
2810.6101 -2490.8501 -388.409 1.8403113e-38
2774.24 -2308.99 -388.60101 1.8403113e-38
2703.1201 -1970.28 -387.74399 1.8403113e-38
2689.75 -1953.88 -384.16501 1.8403113e-38
2701.4299 -1946.1899 -388.88599 1.8403113e-38
2699.1499 -1935.27 -388.86301 1.8403113e-38
2131.9199 773.59003 -382.59 1.8403113e-38
2112.2 866.81 -382.302 1.8403113e-38
1877.47 1996.14 -380.31 1.8403113e-38
2726.6201 -2303.3899 -372.021 1.8403113e-38
2744.3601 -2303.77 -378.32001 1.8403113e-38
2534.51 -1324.21 -374.362 1.8403113e-38
2135.9299 627.62799 -373.45499 1.8403113e-38
2127.9199 645.27802 -371.87701 1.8403113e-38
2107.6001 721.69598 -370.15701 1.8403113e-38
1857.89 1999.7 -373.58499 1.8403113e-38
2700.77 -2313.3899 -362.073 1.8403113e-38
2711.5701 -2308.7 -366.26599 1.8403113e-38
2358.95 -585.86499 -365.17899 1.8403113e-38
2346.3601 -467.12299 -369.28101 1.8403113e-38
2077.51 761.15503 -362.28101 1.8403113e-38
2866.9399 -3278.9199 -351.46701 1.8403113e-38
2691.1599 -2367.6101 -354.72101 1.8403113e-38
2689.5701 -2352.3899 -355.25699 1.8403113e-38
2695.1299 -2339.53 -358.16901 1.8403113e-38
2687.22 -2319.49 -356.79901 1.8403113e-38
2052.96 767.328 -353.97198 1.8403113e-38
1800.26 1992.85 -352.53101 1.8403113e-38
1820.08 1994.67 -359.73099 1.8403113e-38
2837.4399 -3262.8401 -342.10699 1.8403113e-38
2283.79 -519.51398 -343.173 1.8403113e-38
2291.75 -519.06702 -346.043 1.8403113e-38
1763.27 2003.08 -340.077 1.8403113e-38
2817.1599 -3269.96 -334.35599 1.8403113e-38
2296.8599 -744.94348 -331.51849 1.8403113e-38
2292.2002 -724.27405 -331.35101 1.8403113e-38
2297.1001 -696.349 -335.11899 1.8403113e-38
2296.6299 -688.32703 -335.53299 1.8403113e-38
2296.6699 -669.16901 -336.93301 1.8403113e-38
2260.1699 -529.797 -334.00101 1.8403113e-38
2270.72 -503.20999 -339.69101 1.8403113e-38
2259.98 -494.423 -336.49399 1.8403113e-38
2261.53 -480.58099 -338.04999 1.8403113e-38
2247.4299 -476.79599 -333.29199 1.8403113e-38
2244.6201 -469.521 -332.819 1.8403113e-38
2025.37 686.151 -338.255 1.8403113e-38
1743.29 1994.89 -332.35699 1.8403113e-38
2782.78 -3283.25 -321.13199 1.8403113e-38
2803.6499 -3277.4299 -328.99899 1.8403113e-38
2304.3101 -940.02802 -320.05399 1.8403113e-38
2304.3999 -920.35699 -321.51099 1.8403113e-38
2301.3201 -916.409 -320.698 1.8403113e-38
2303.5601 -897.64697 -322.85501 1.8403113e-38
2305.2 -875.44299 -325.04901 1.8403113e-38
2297.6899 -864.13098 -323.18701 1.8403113e-38
2306.3999 -849.47699 -327.35599 1.8403113e-38
2299.5601 -833.612 -326.06299 1.8403113e-38
2305.8799 -834.87201 -328.22699 1.8403113e-38
2295.29 -822.22998 -325.36401 1.8403113e-38
2294.47 -815.81403 -325.534 1.8403113e-38
2294.5649 -796.15399 -326.99298 1.8403113e-38
2296.95 -773.58197 -329.479 1.8403113e-38
2294.45 -768.474 -328.95499 1.8403113e-38
2216.0901 -477.953 -322.03101 1.8403113e-38
2224.4199 -475.92801 -325.14899 1.8403113e-38
1995.02 653.612 -325.07199 1.8403113e-38
1984.35 660.72498 -321.78101 1.8403113e-38
2944.5601 -4204.8301 -312.14001 1.8403113e-38
2943.4199 -4135.2002 -316.772 1.8403113e-38
2941.3 -4085.04 -319.647 1.8403113e-38
2768.8601 -3329.78 -312.798 1.8403113e-38
2767.6299 -3287.9299 -315.39001 1.8403113e-38
2375.95 -1338.21 -316.79099 1.8403113e-38
2316.8201 -1137.61 -310.21701 1.8403113e-38
2311.925 -1106.1951 -310.74451 1.8403113e-38
2304.73 -1080.77 -310.01999 1.8403113e-38
2304.1399 -1075.65 -310.177 1.8403113e-38
2304.75 -1064.4399 -311.207 1.8403113e-38
2304.05 -1059.3101 -311.328 1.8403113e-38
2304.4302 -1045.165 -312.48849 1.8403113e-38
2304.5601 -1030.88 -313.57001 1.8403113e-38
2302.8601 -1026.27 -313.29599 1.8403113e-38
2303.55 -1014.17 -314.418 1.8403113e-38
2302.54 -1009.05 -314.42801 1.8403113e-38
2302.4199 -994.26752 -315.45398 1.8403113e-38
2306.825 -972.94348 -318.57098 1.8403113e-38
2300.71 -961.763 -317.19901 1.8403113e-38
2304.71 -952.68201 -319.28101 1.8403113e-38
2302.8301 -934.89203 -319.901 1.8403113e-38
2189.5 -484.61301 -312.06601 1.8403113e-38
2198.1699 -481.48499 -315.38199 1.8403113e-38
1962.66 677.57599 -315.26501 1.8403113e-38
1953.54 696.258 -313.36401 1.8403113e-38
1705.8199 1988.52 -318.53 1.8403113e-38
1686.5 2005.84 -312.89301 1.8403113e-38
2944.26 -4325.4102 -303.30499 1.8403113e-38
2944.4199 -4253.5298 -308.56299 1.8403113e-38
2739.23 -3351.4099 -300.664 1.8403113e-38
2758.05 -3341.99 -308.061 1.8403113e-38
2338.4399 -1330.53 -303.966 1.8403113e-38
2351.8899 -1336.6899 -308.32001 1.8403113e-38
2333.8401 -1326.22 -302.638 1.8403113e-38
2330.905 -1315.855 -302.34052 1.8403113e-38
2328.2349 -1302.905 -302.3255 1.8403113e-38
2329.5701 -1291.54 -303.62399 1.8403113e-38
2325.71 -1287.37 -302.54901 1.8403113e-38
2319.8501 -1275.23 -301.336 1.8403113e-38
2326.5 -1278.59 -303.465 1.8403113e-38
2324.3901 -1262.825 -303.85498 1.8403113e-38
2322.4199 -1252.05 -303.93201 1.8403113e-38
2329.1899 -1244.9399 -306.86099 1.8403113e-38
2323.8201 -1235.0649 -305.66199 1.8403113e-38
2324.5901 -1223.1801 -306.79401 1.8403113e-38
2322.1851 -1214.275 -306.582 1.8403113e-38
2319.71 -1205.41 -306.34 1.8403113e-38
2313.3999 -1195.8999 -304.7785 1.8403113e-38
2311.3601 -1184.76 -304.85699 1.8403113e-38
2311.4099 -1179.61 -305.24701 1.8403113e-38
2313.8999 -1166.45 -307.08899 1.8403113e-38
2308.28 -1151.39 -306.17401 1.8403113e-38
2314.45 -1153.87 -308.194 1.8403113e-38
2308.8899 -1136.02 -307.504 1.8403113e-38
2311.21 -1124.85 -309.14099 1.8403113e-38
2310.8899 -1119.6899 -309.39899 1.8403113e-38
2304.9751 -1093.98 -309.15051 1.8403113e-38
2174.6799 -483.47 -306.85999 1.8403113e-38
2170.3899 -479.17499 -305.642 1.8403113e-38
1930.88 709.85101 -306.26401 1.8403113e-38
1921.04 726.39502 -303.953 1.8403113e-38
2945.6799 -4515.1802 -290.07599 1.8403113e-38
2946.3899 -4382.5898 -299.927 1.8403113e-38
2703.97 -3321.25 -290.26999 1.8403113e-38
2131.6299 -483.077 -291.53201 1.8403113e-38
2147.6399 -481.03201 -297.39301 1.8403113e-38
2154.6799 -480.021 -299.97699 1.8403113e-38
2127.3501 -479.08099 -290.29401 1.8403113e-38
1886.99 750.08099 -293.521 1.8403113e-38
1899.84 755.427 -298.48999 1.8403113e-38
1629.45 1997.79 -291.96201 1.8403113e-38
1649.0601 1996.8199 -298.88501 1.8403113e-38
2932.0901 -4566.71 -281.5 1.8403113e-38
2920.01 -4400.0801 -289.25201 1.8403113e-38
2709.8401 -3484.6899 -280.53601 1.8403113e-38
2705.7 -3442.9399 -282.082 1.8403113e-38
2701.3601 -3390.47 -284.328 1.8403113e-38
2696.0801 -3349.1001 -285.44101 1.8403113e-38
2113.175 -471.621 -285.7785 1.8403113e-38
2917.1399 -4590.3398 -274.45499 1.8403113e-38
2693.3799 -3536.27 -270.93201 1.8403113e-38
2691.5 -3496.97 -273.104 1.8403113e-38
2087.9199 -474.755 -276.543 1.8403113e-38
2095.1399 -472.29401 -279.298 1.8403113e-38
2075.51 -463.87 -272.90399 1.8403113e-38
1857.36 704.63898 -279.66199 1.8403113e-38
1846.13 710.84497 -276.108 1.8403113e-38
1572.5601 1998.66 -271.73199 1.8403113e-38
1592.17 1998.08 -278.68201 1.8403113e-38
2882.22 -4591.71 -261.90201 1.8403113e-38
2057.29 -452.293 -267.24399 1.8403113e-38
2061.3401 -456.70499 -268.36899 1.8403113e-38
2046.89 -443.043 -264.20499 1.8403113e-38
2043.11 -437.814 -263.23499 1.8403113e-38
1988.22 -82.386299 -269.37799 1.8403113e-38
1823.39 729.224 -269.32501 1.8403113e-38
2858.1399 -4592.79 -253.235 1.8403113e-38
2028.21 -439.64999 -257.784 1.8403113e-38
2028.95 -422.62701 -259.28299 1.8403113e-38
2015.425 -412.9415 -255.15851 1.8403113e-38
2003.03 -399.702 -251.696 1.8403113e-38
1535.39 1994.3101 -258.159 1.8403113e-38
1515.59 2001.48 -251.61301 1.8403113e-38
2824.45 -4596.2002 -240.97099 1.8403113e-38
1997.61 -398.45001 -249.854 1.8403113e-38
1990.12 -378.54199 -248.621 1.8403113e-38
1987.05 -369.905 -248.151 1.8403113e-38
1974.995 -353.23749 -245.05649 1.8403113e-38
1965.9301 -325.32599 -243.84399 1.8403113e-38
1961.52 -319.62201 -242.685 1.8403113e-38
1952.6899 -298.87201 -241.03799 1.8403113e-38
1949.63 -287.526 -240.76601 1.8403113e-38
2796.6299 -4586.5298 -231.746 1.8403113e-38
1458.85 1997.25 -231.069 1.8403113e-38
1478.4301 1997.46 -238.06799 1.8403113e-38
2763.48 -4590.1099 -219.66299 1.8403113e-38
2739.3101 -4589.3198 -211.097 1.8403113e-38
1401.9301 1996.96 -210.745 1.8403113e-38
1421.5 1997.5699 -217.77 1.8403113e-38
2703.99 -4585.5801 -198.772 1.8403113e-38
1373.88 1876.1 -191.993 1.8403113e-38
2624.4399 -4418.5498 -182.48399 1.8403113e-38
1354.5 1882.11 -185.51199 1.8403113e-38
1333.51 1719.04 -166.22301 1.8403113e-38
1288.83 1986.26 -169.625 1.8403113e-38
2320.03 -3575.97 -134.884 1.8403113e-38
2305.3999 -3581.7 -129.248 1.8403113e-38
2282.3 -3577.8899 -121.287 1.8403113e-38
1370.3199 908.72803 -120.706 1.8403113e-38
2266.49 -3579.53 -115.527 1.8403113e-38
1359.15 893.711 -115.635 1.8403113e-38
1230.24 1567.08 -118.389 1.8403113e-38
2249.3899 -3595.3999 -108.279 1.8403113e-38
1318.55 1006.69 -109.329 1.8403113e-38
1211.59 1464.71 -104.327 1.8403113e-38
1117.91 1978.7 -108.113 1.8403113e-38
2197.26 -3467.8401 -98.917297 1.8403113e-38
2061.75 -3040.9399 -81.477699 1.8403113e-38
2033.98 -3041.1699 -71.555099 1.8403113e-38
2047.3 -3033.3799 -76.870102 1.8403113e-38
1240.88 896.04797 -73.617401 1.8403113e-38
1251.53 910.815 -78.482803 1.8403113e-38
1018.87 1997.33 -74.132896 1.8403113e-38
2020.41 -3036.28 -67.07 1.8403113e-38
2001.5 -3020.4199 -61.472099 1.8403113e-38
997.39001 2004.73 -67.005898 1.8403113e-38
1977.04 -3032.1899 -51.895699 1.8403113e-38
1988.63 -3017.23 -57.113201 1.8403113e-38
960.23297 1997.74 -53.246498 1.8403113e-38
1967.92 -3046.4099 -47.6115 1.8403113e-38
1949.9301 -3031.76 -42.254002 1.8403113e-38
938.97601 2002.74 -46.0257 1.8403113e-38
