# .PCD v0.7 - Point Cloud Data file format
VERSION 0.7
FIELDS x y z rgb
SIZE 4 4 4 4
TYPE F F F F
COUNT 1 1 1 1
WIDTH 358
HEIGHT 1
VIEWPOINT 0 0 0 1 0 0 0
POINTS 358
DATA ascii
2813.6899 -1846.62 -420.51401 1.8403113e-38
2790.8799 -1815.97 -420.40601 1.8403113e-38
2769.45 -1786.4399 -420.45999 1.8403113e-38
2753.26 -1758.46 -421.72101 1.8403113e-38
2726.98 -1729.97 -420.13199 1.8403113e-38
2720.8601 -1716.83 -421.16 1.8403113e-38
2706.95 -1703.0601 -420.03601 1.8403113e-38
2701.5701 -1690.29 -421.20099 1.8403113e-38
2690.3201 -1677.16 -420.71899 1.8403113e-38
2683.76 -1664.5699 -421.50201 1.8403113e-38
2675.1799 -1651.97 -421.69101 1.8403113e-38
2667.45 -1639.5601 -422.09 1.8403113e-38
2656.74 -1627.16 -421.61099 1.8403113e-38
2647.8601 -1615.01 -421.61301 1.8403113e-38
2642.71 -1603.12 -422.66199 1.8403113e-38
2637.48 -1591.3 -423.664 1.8403113e-38
2614.24 -1567.9301 -421.86499 1.8403113e-38
2606.8 -1556.5 -422.13901 1.8403113e-38
2597.3601 -1545.22 -421.79099 1.8403113e-38
2584 -1534.21 -420.237 1.8403113e-38
2583.01 -1522.97 -422.362 1.8403113e-38
2569.49 -1512.29 -420.68701 1.8403113e-38
2567.3601 -1501.22 -422.44199 1.8403113e-38
2560.3601 -1490.47 -422.69901 1.8403113e-38
2550.4299 -1480.04 -422.02399 1.8403113e-38
2547.0801 -1469.22 -423.367 1.8403113e-38
2536.99 -1459.05 -422.591 1.8403113e-38
2527.78 -1448.95 -422.05899 1.8403113e-38
2518.5 -1438.99 -421.47501 1.8403113e-38
2513.8799 -1428.62 -422.349 1.8403113e-38
2505.3999 -1418.79 -421.97198 1.8403113e-38
2496.8501 -1409.09 -421.547 1.8403113e-38
2490.1201 -1399.25 -421.686 1.8403113e-38
2484.26 -1389.36 -422.091 1.8403113e-38
2482.0801 -1378.9399 -423.69101 1.8403113e-38
2478.8701 -1368.6899 -424.952 1.8403113e-38
2462.8701 -1350.08 -424.255 1.8403113e-38
2470.8999 -1359.33 -424.62601 1.8403113e-38
2450.1201 -1341.89 -422.27301 1.8403113e-38
2444.77 -1332.34 -422.754 1.8403113e-38
2365.9299 -1236.75 -420.155 1.8403113e-38
2366.0901 -1226.13 -422.487 1.8403113e-38
2371.52 -1213.65 -426.76501 1.8403113e-38
2365.22 -1205.08 -426.75699 1.8403113e-38
2352.6399 -1198.8199 -424.40701 1.8403113e-38
2346.1001 -1185.1599 -425.42499 1.8403113e-38
2336.78 -1172.6 -425.388 1.8403113e-38
2326.6899 -1165.85 -423.87799 1.8403113e-38
2315.8501 -1154.1799 -423.20401 1.8403113e-38
2307.51 -1141.5699 -423.466 1.8403113e-38
2305.02 -1131.83 -424.828 1.8403113e-38
2293.8701 -1126.01 -422.806 1.8403113e-38
2290.3899 -1116.76 -423.772 1.8403113e-38
2283.4299 -1109.15 -423.36401 1.8403113e-38
2270.2 -1093.76 -422.78799 1.8403113e-38
2283.1799 -1098.3101 -425.621 1.8403113e-38
2264.76 -1085.53 -422.95999 1.8403113e-38
2257.5901 -1078.23 -422.42599 1.8403113e-38
2247.25 -1061.62 -422.95999 1.8403113e-38
2254.53 -1068.79 -423.55499 1.8403113e-38
2235.8201 -1056.83 -420.634 1.8403113e-38
2225.1499 -1040.6 -420.987 1.8403113e-38
2233.3701 -1047.0601 -422.01599 1.8403113e-38
2220.1101 -1032.3199 -421.29099 1.8403113e-38
2217.4199 -1022.61 -422.58801 1.8403113e-38
2210.6499 -1015.38 -422.15201 1.8403113e-38
2202.23 -1009.24 -421.004 1.8403113e-38
2192.3799 -992.57501 -421.69199 1.8403113e-38
2172.0601 -971.37402 -420.285 1.8403113e-38
2180.6899 -977.12701 -421.58099 1.8403113e-38
2171.05 -960.24298 -422.38 1.8403113e-38
2160.8101 -955.73499 -420.34299 1.8403113e-38
2158.1001 -945.73602 -421.69601 1.8403113e-38
2145.6799 -930.89899 -421.23901 1.8403113e-38
2132.29 -916.87402 -420.32501 1.8403113e-38
2144.1699 -919.77502 -423.189 1.8403113e-38
2128.4299 -907.57001 -421.19101 1.8403113e-38
2125.2 -897.672 -422.36899 1.8403113e-38
2112.73 -882.80298 -421.90601 1.8403113e-38
2121.1399 -888.38098 -423.17599 1.8403113e-38
2107.8201 -874.19897 -422.31299 1.8403113e-38
2089.1499 -851.76599 -421.65302 1.8403113e-38
2099.8201 -855.164 -424.05701 1.8403113e-38
2083.9299 -843.30603 -421.94101 1.8403113e-38
2082.01 -831.59698 -423.89401 1.8403113e-38
2071.9199 -827.79999 -421.74799 1.8403113e-38
2067.1399 -818.77502 -422.284 1.8403113e-38
2052.74 -805.55103 -420.89899 1.8403113e-38
2062.9199 -809.09601 -423.12601 1.8403113e-38
2053.52 -790.45001 -424.37399 1.8403113e-38
2034.25 -782.354 -420.45599 1.8403113e-38
2043.25 -787.04102 -422.091 1.8403113e-38
2031.48 -770.71503 -422.147 1.8403113e-38
2023 -765.45001 -420.79001 1.8403113e-38
2021.24 -752.38599 -423.07901 1.8403113e-38
2015.0601 -744.33698 -422.995 1.8403113e-38
2010 -734.87201 -423.54501 1.8403113e-38
2001.87 -729.09302 -422.401 1.8403113e-38
1988.98 -713.29199 -422.013 1.8403113e-38
1998.98 -716.73401 -424.20999 1.8403113e-38
1983.5601 -703.95398 -422.42999 1.8403113e-38
1979.17 -693.12598 -423.46899 1.8403113e-38
1970.74 -687.62903 -422.17401 1.8403113e-38
1956.49 -673.01001 -421.133 1.8403113e-38
1965.58 -677.60999 -422.814 1.8403113e-38
1952.23 -661.50299 -422.35501 1.8403113e-38
1943.5601 -656.25201 -420.94 1.8403113e-38
1939.0601 -644.78101 -422.08499 1.8403113e-38
1931.83 -637.27197 -421.57501 1.8403113e-38
1927.58 -625.02802 -422.961 1.8403113e-38
1912.16 -611.01599 -421.44601 1.8403113e-38
1920.16 -617.59198 -422.38 1.8403113e-38
1898.41 -593.96997 -421.07101 1.8403113e-38
1908.51 -597.19299 -423.345 1.8403113e-38
1893.05 -582.63202 -421.935 1.8403113e-38
1884.74 -576.26202 -420.86499 1.8403113e-38
1877.29 -568.297 -420.39099 1.8403113e-38
1874.74 -551.19202 -423.31799 1.8403113e-38
1866.59 -544.117 -422.44699 1.8403113e-38
1860.5601 -532.88098 -423.09201 1.8403113e-38
1852.24 -525.90601 -422.14801 1.8403113e-38
1843.42 -519.84601 -420.86099 1.8403113e-38
1828.88 -501.05301 -420.633 1.8403113e-38
1836.62 -509.573 -421.07401 1.8403113e-38
1824.64 -484.797 -422.88199 1.8403113e-38
1818.98 -471.12601 -424.16101 1.8403113e-38
1810.0601 -464.44299 -422.97699 1.8403113e-38
1806.34 -445.55499 -425.948 1.8403113e-38
1787.58 -433.314 -423.07101 1.8403113e-38
1796.8101 -439.83701 -424.37701 1.8403113e-38
1779.35 -424.198 -422.61401 1.8403113e-38
1772.39 -411.569 -423.285 1.8403113e-38
1756.3 -390.87601 -423.00699 1.8403113e-38
1765.59 -398.069 -424.19101 1.8403113e-38
1749.8199 -375.638 -424.38101 1.8403113e-38
1742.49 -362.22101 -425.11301 1.8403113e-38
1734.66 -349.73801 -425.49799 1.8403113e-38
1716.16 -332.19699 -423.83801 1.8403113e-38
1726.66 -337.29099 -425.82501 1.8403113e-38
1710.13 -312.51099 -426.29999 1.8403113e-38
1699.6899 -306.62601 -424.49899 1.8403113e-38
1690.78 -295.285 -424.32199 1.8403113e-38
1681.72 -283.995 -424.08801 1.8403113e-38
1675 -263.47 -426.52701 1.8403113e-38
1663.6 -259.716 -423.98901 1.8403113e-38
1656.16 -240.179 -426.00299 1.8403113e-38
1646.61 -228.151 -425.785 1.8403113e-38
1636.89 -216.179 -425.504 1.8403113e-38
1626.99 -204.267 -425.16 1.8403113e-38
1618.33 -185.81 -426.586 1.8403113e-38
1608.4301 -172.11501 -426.62201 1.8403113e-38
1596.47 -167.961 -424.004 1.8403113e-38
1587.66 -146.80299 -425.965 1.8403113e-38
1577.83 -129.48399 -426.80399 1.8403113e-38
1566.47 -119.849 -425.53699 1.8403113e-38
1556.02 -103.605 -425.96301 1.8403113e-38
1544.47 -93.1688 -424.815 1.8403113e-38
1533.1801 -79.937103 -424.34299 1.8403113e-38
1523.2 -55.243801 -426.72299 1.8403113e-38
1510.58 -48.889099 -424.383 1.8403113e-38
1498.65 -35.8857 -423.67599 1.8403113e-38
1486.9301 -19.102301 -423.84201 1.8403113e-38
1474.9399 -2.3947301 -423.91501 1.8403113e-38
1462.95 17.139601 -424.59399 1.8403113e-38
1449.65 23.989599 -422.16199 1.8403113e-38
1437.77 52.093601 -424.71301 1.8403113e-38
1424.7 68.468498 -424.396 1.8403113e-38
1410.96 76.964798 -422.18799 1.8403113e-38
1398.04 106.779 -424.806 1.8403113e-38
1384.08 120.918 -423.746 1.8403113e-38
1370.11 142.755 -424.33801 1.8403113e-38
1355.61 155.705 -422.867 1.8403113e-38
1340.98 174.403 -422.58801 1.8403113e-38
1326.04 197.87601 -423.25 1.8403113e-38
1310.79 211.459 -421.69199 1.8403113e-38
1295.28 227.85201 -420.66199 1.8403113e-38
1279.36 249.994 -420.746 1.8403113e-38
1262.9399 275.92599 -421.50101 1.8403113e-38
1246.37 294.87399 -420.711 1.8403113e-38
1228.37 336.211 -424.31201 1.8403113e-38
1210.76 358.80099 -423.99799 1.8403113e-38
1193.04 377.32599 -422.77701 1.8403113e-38
1174.86 397.659 -421.81 1.8403113e-38
1155.6801 425.66699 -422.20001 1.8403113e-38
1136.12 452.53201 -422.23199 1.8403113e-38
1006.49 629.427 -422.20001 1.8403113e-38
983.18201 657.875 -421.47299 1.8403113e-38
957.974 694.867 -422.02399 1.8403113e-38
932.79401 727.724 -421.69501 1.8403113e-38
904.78699 772.97101 -423.19901 1.8403113e-38
879.64801 798.51898 -421.31 1.8403113e-38
3060.29 -2199.1299 -417.13599 1.8403113e-38
3051.8101 -2179.3899 -418.888 1.8403113e-38
3028.3101 -2154.74 -417.28799 1.8403113e-38
3016.6201 -2134.5601 -418.19199 1.8403113e-38
2996.3401 -2111.8999 -417.112 1.8403113e-38
2983.29 -2091.97 -417.565 1.8403113e-38
2969.1101 -2072.01 -417.69101 1.8403113e-38
2842.55 -1893.21 -418.97101 1.8403113e-38
2831.1699 -1877.11 -419.09 1.8403113e-38
2821.55 -1861.6 -419.60001 1.8403113e-38
2795.1899 -1829.92 -418.673 1.8403113e-38
2776.8799 -1800.58 -419.60501 1.8403113e-38
2751.3501 -1770.96 -418.47601 1.8403113e-38
2733.9399 -1743.33 -419.30499 1.8403113e-38
2615.8201 -1579.4301 -419.85599 1.8403113e-38
2369.98 -1287.52 -410.427 1.8403113e-38
2373.3701 -1276.29 -413.83801 1.8403113e-38
2369.3701 -1267.0601 -414.647 1.8403113e-38
2372.54 -1255.71 -418.01999 1.8403113e-38
2371.0801 -1245.66 -419.75201 1.8403113e-38
2193.01 -1003.71 -419.48401 1.8403113e-38
2181.5 -988.24799 -419.42899 1.8403113e-38
2144.8101 -943.69702 -418.233 1.8403113e-38
2097.24 -870.66199 -419.966 1.8403113e-38
1121.46 426.39099 -412.30701 1.8403113e-38
853.49402 826.73199 -419.69601 1.8403113e-38
3618.4299 -3031.6499 -402.03299 1.8403113e-38
3607.03 -2997.71 -405.98001 1.8403113e-38
3572.4399 -2950.0601 -406.069 1.8403113e-38
3545.72 -2908.1899 -407.22601 1.8403113e-38
3498.8999 -2855.28 -404.853 1.8403113e-38
2997.8301 -2192.6699 -400.18301 1.8403113e-38
2795.8899 -1896.62 -404.534 1.8403113e-38
2393.9399 -1332.85 -407.716 1.8403113e-38
2372.8301 -1327.46 -402.67899 1.8403113e-38
2375.71 -1316.67 -405.84299 1.8403113e-38
2372.97 -1307.1801 -407.077 1.8403113e-38
2372.8899 -1297 -409.245 1.8403113e-38
1105.4301 416.74399 -405.52399 1.8403113e-38
1073.36 400.931 -392.70599 1.8403113e-38
1089.4399 407.931 -398.935 1.8403113e-38
3547.0901 -3012.3799 -385.22501 1.8403113e-38
2815.22 -2010.9399 -385.63 1.8403113e-38
2719.6399 -1905.12 -380.315 1.8403113e-38
2735.02 -1895.92 -386.80899 1.8403113e-38
1056.6 399.64499 -387.509 1.8403113e-38
2873.25 -2161.3101 -370.33701 1.8403113e-38
2703.78 -1926.65 -371.02802 1.8403113e-38
2707.97 -1915 -374.76401 1.8403113e-38
3939.48 -3664.8 -360.17099 1.8403113e-38
3887.21 -3588.3101 -361.271 1.8403113e-38
3419.9199 -2954.77 -360.26599 1.8403113e-38
2843.3201 -2164.75 -360.81 1.8403113e-38
2701.8601 -1964.46 -362.336 1.8403113e-38
2700.73 -1951.33 -364.827 1.8403113e-38
2702.3101 -1938.99 -367.94199 1.8403113e-38
900.93103 493.41901 -361.957 1.8403113e-38
2826.1799 -2172.8201 -354.04001 1.8403113e-38
369.591 1166.41 -350.62701 1.8403113e-38
3324.24 -2915.5801 -340.595 1.8403113e-38
903.12201 398.754 -342.246 1.8403113e-38
300.10999 1216.27 -340.94299 1.8403113e-38
326.19501 1216.34 -348.621 1.8403113e-38
2750.1201 -2170.5901 -332.186 1.8403113e-38
2754.49 -2158.1699 -336.13901 1.8403113e-38
886.47699 395.95099 -336.755 1.8403113e-38
866.74103 406.5 -333.22699 1.8403113e-38
276.436 1209.41 -332.51801 1.8403113e-38
3307.78 -2953.03 -327.70999 1.8403113e-38
3275.1499 -2906.27 -328.18301 1.8403113e-38
2753.8999 -2230.1201 -320.49399 1.8403113e-38
2744.4299 -2211.21 -321.77899 1.8403113e-38
2742.8501 -2196.0801 -324.57001 1.8403113e-38
2746.55 -2183.3501 -328.39099 1.8403113e-38
855.60101 380.267 -324.315 1.8403113e-38
832.198 404.909 -322.741 1.8403113e-38
252.466 1203.28 -324.159 1.8403113e-38
3856.1201 -3775.8101 -311.823 1.8403113e-38
3663.49 -3508.04 -312.83099 1.8403113e-38
3436.6399 -3205.1399 -311.34399 1.8403113e-38
3288.75 -2964.1799 -319.72601 1.8403113e-38
2786.1499 -2305.9399 -313.66101 1.8403113e-38
2782.8201 -2288.9099 -316.34698 1.8403113e-38
2759.79 -2262.53 -315.254 1.8403113e-38
2745.3501 -2240.8101 -315.68399 1.8403113e-38
817.52002 393.79999 -316.04199 1.8403113e-38
796.36298 407.474 -312.76901 1.8403113e-38
230.01401 1193.21 -315.401 1.8403113e-38
3656.3501 -3534.8601 -304.96701 1.8403113e-38
3228.5901 -2945.3899 -306.09698 1.8403113e-38
2757.71 -2306.8101 -305.12201 1.8403113e-38
774.95599 420.93301 -309.37601 1.8403113e-38
728.03998 458.61899 -303.702 1.8403113e-38
748.67902 450.39401 -307.995 1.8403113e-38
202.80901 1194.95 -307.785 1.8403113e-38
3816.76 -3777.96 -299.802 1.8403113e-38
3637.5801 -3551.95 -295.77802 1.8403113e-38
3213.02 -2982.46 -293.55499 1.8403113e-38
3209.6899 -2955.7 -298.328 1.8403113e-38
2725.8401 -2305.3999 -296.06799 1.8403113e-38
153.995 1183.84 -291.06201 1.8403113e-38
176.284 1194.5699 -299.914 1.8403113e-38
3775.29 -3777.5801 -287.707 1.8403113e-38
3206.55 -3002.1101 -287.42599 1.8403113e-38
2721.52 -2364.1299 -282.17001 1.8403113e-38
2712.03 -2343.3899 -283.84299 1.8403113e-38
2710.1001 -2327.1299 -286.77399 1.8403113e-38
2707.1299 -2310.47 -289.483 1.8403113e-38
713.48798 387.22501 -284.078 1.8403113e-38
729.68701 392.52499 -289.974 1.8403113e-38
127.454 1182.97 -283.07999 1.8403113e-38
-476.311 1994.4399 -280.258 1.8403113e-38
3733.24 -3775.95 -275.70901 1.8403113e-38
2719.6499 -2378.6201 -278.504 1.8403113e-38
698.87 377.052 -277.59698 1.8403113e-38
677.849 386.57401 -273.47101 1.8403113e-38
100.866 1181.83 -275.02802 1.8403113e-38
3693.5601 -3775.79 -264.09 1.8403113e-38
657.91699 392.11301 -268.80899 1.8403113e-38
74.647499 1179.52 -266.83099 1.8403113e-38
-514.11401 1996.09 -269.51001 1.8403113e-38
3664.8899 -3785.3799 -253.60899 1.8403113e-38
21.2791 1175.92 -250.384 1.8403113e-38
47.562401 1178.76 -258.71301 1.8403113e-38
-551.57898 1996.45 -258.58701 1.8403113e-38
-5.0252299 1172.8199 -241.993 1.8403113e-38
-589.62201 1997.29 -247.59599 1.8403113e-38
3487.3701 -3651.3401 -230.298 1.8403113e-38
-30.9053 1168.5601 -233.47701 1.8403113e-38
-626.34399 1995.11 -236.342 1.8403113e-38
3476.96 -3675.73 -221.995 1.8403113e-38
3407.54 -3641.6399 -208.94 1.8403113e-38
3376.71 -3644.8401 -199.19701 1.8403113e-38
3339.6899 -3641.21 -189.106 1.8403113e-38
3039.75 -3362.1101 -161.03799 1.8403113e-38
5.6570501 793.85303 -163.645 1.8403113e-38
3008.0701 -3358.21 -152.573 1.8403113e-38
-9.9270096 776.297 -155.293 1.8403113e-38
2987.4199 -3365.6201 -144.914 1.8403113e-38
-15.7727 742.20099 -146.245 1.8403113e-38
2931.0901 -3333.6299 -135.24899 1.8403113e-38
-54.861401 722.091 -130.442 1.8403113e-38
-35.869999 733.09802 -138.386 1.8403113e-38
2896.04 -3323.8899 -127.053 1.8403113e-38
-82.106903 724.54498 -122.969 1.8403113e-38
-930.159 1912.51 -129.362 1.8403113e-38
2837.8601 -3315.8201 -111.701 1.8403113e-38
2846.0601 -3296.4299 -118.28 1.8403113e-38
-153.416 797.065 -117.621 1.8403113e-38
-287.15201 964.729 -114.398 1.8403113e-38
-978.03101 1923.3199 -117.628 1.8403113e-38
2824.24 -3329.1001 -104.848 1.8403113e-38
-977.18201 1860.49 -104.367 1.8403113e-38
2794.0901 -3352.1899 -91.026703 1.8403113e-38
2810.5 -3342.25 -97.984001 1.8403113e-38
-975.43402 1797.88 -91.416901 1.8403113e-38
2774.46 -3358.0901 -83.994003 1.8403113e-38
2800.55 -3452.6299 -71.328102 1.8403113e-38
2783.48 -3399.72 -77.692101 1.8403113e-38
-980.21002 1746.17 -78.895897 1.8403113e-38
2788.76 -3469.49 -64.239799 1.8403113e-38
-524.625 1044.72 -61.859501 1.8403113e-38
2770.74 -3478.3 -57.054401 1.8403113e-38
-296.595 682.92798 -51.031898 1.8403113e-38
2314.49 -2921.6799 -42.752499 1.8403113e-38
2329.1299 -2918.3201 -47.7757 1.8403113e-38
-299.061 647.78998 -42.752499 1.8403113e-38
