# .PCD v0.7 - Point Cloud Data file format
VERSION 0.7
FIELDS x y z rgb
SIZE 4 4 4 4
TYPE F F F F
COUNT 1 1 1 1
WIDTH 330
HEIGHT 1
VIEWPOINT 0 0 0 1 0 0 0
POINTS 330
DATA ascii
1244.35 254.89999 -452.90601 1.8403113e-38
1224.3 239.64 -445.60699 1.8403113e-38
1233.96 263.40701 -449.12399 1.8403113e-38
1221.6899 271.29099 -444.65701 1.8403113e-38
1219.42 281.535 -443.832 1.8403113e-38
1183.1899 -764.97601 -430.64499 1.8403113e-38
1183.75 -736.89697 -430.85001 1.8403113e-38
1188.53 -593.34698 -432.59 1.8403113e-38
1182.12 -564.88599 -430.25699 1.8403113e-38
1181.65 -552.34802 -430.08401 1.8403113e-38
1186.98 -542.87402 -432.026 1.8403113e-38
1186.28 -530.38599 -431.772 1.8403113e-38
1182.04 -516.29303 -430.228 1.8403113e-38
1183.45 -493.25299 -430.741 1.8403113e-38
1185.04 -464.785 -431.31799 1.8403113e-38
1181.49 -446.03201 -430.02802 1.8403113e-38
1184.23 -435.77499 -431.02499 1.8403113e-38
1186.89 -425.50201 -431.991 1.8403113e-38
1188.5699 -414.87 -432.603 1.8403113e-38
1183.96 -401.90302 -430.92499 1.8403113e-38
1191.65 -393.612 -433.72699 1.8403113e-38
1185.04 -380.13101 -431.319 1.8403113e-38
1182.75 -368.34799 -430.487 1.8403113e-38
1183.04 -357.539 -430.59299 1.8403113e-38
1189.53 -348.79901 -432.953 1.8403113e-38
1184.24 -336.27399 -431.02802 1.8403113e-38
1186.05 -326.07901 -431.68799 1.8403113e-38
1186.88 -315.60901 -431.98801 1.8403113e-38
1188.52 -305.40601 -432.58401 1.8403113e-38
1183.7 -293.44501 -430.832 1.8403113e-38
1186.0699 -283.53201 -431.69299 1.8403113e-38
1184.7 -272.664 -431.194 1.8403113e-38
1182.3101 -261.61801 -430.327 1.8403113e-38
1192.6801 -253.66701 -434.09799 1.8403113e-38
1188.28 -242.217 -432.49899 1.8403113e-38
1183.78 -230.868 -430.86099 1.8403113e-38
1186.5601 -221.14799 -431.871 1.8403113e-38
1190.1801 -211.575 -433.189 1.8403113e-38
1193.72 -201.953 -434.479 1.8403113e-38
1190.7 -191.125 -433.38 1.8403113e-38
1194.08 -181.464 -434.61099 1.8403113e-38
1189.03 -170.424 -432.76999 1.8403113e-38
1189.45 -160.327 -432.92499 1.8403113e-38
1184.2 -149.452 -431.01501 1.8403113e-38
1182.59 -139.175 -430.42801 1.8403113e-38
1182.76 -129.16499 -430.48901 1.8403113e-38
1185.65 -119.476 -431.54001 1.8403113e-38
1182.84 -109.168 -430.51999 1.8403113e-38
1187.4399 -99.619003 -432.194 1.8403113e-38
1182.35 -79.243401 -430.341 1.8403113e-38
1184.4301 -59.506001 -431.09601 1.8403113e-38
1182.0601 -49.464401 -430.23401 1.8403113e-38
1184.3 -39.645802 -431.05099 1.8403113e-38
1184.79 -19.825899 -431.228 1.8403113e-38
1182.09 9.8871603 -430.246 1.8403113e-38
1182.91 19.791 -430.54401 1.8403113e-38
1185.37 59.5583 -431.43799 1.8403113e-38
1186.1 79.5224 -431.70599 1.8403113e-38
1182.6 89.208 -430.42999 1.8403113e-38
1184.63 99.357498 -431.172 1.8403113e-38
1184.71 109.36 -431.20099 1.8403113e-38
1181.83 129.052 -430.14899 1.8403113e-38
1182.34 149.19099 -430.33701 1.8403113e-38
1182.9399 159.353 -430.55399 1.8403113e-38
1183.54 200.043 -430.77399 1.8403113e-38
1189.25 211.39301 -432.85199 1.8403113e-38
1183.0699 303.854 -430.60199 1.8403113e-38
1186.05 326.07901 -431.68799 1.8403113e-38
1183.04 357.539 -430.59299 1.8403113e-38
1185.4301 369.27499 -431.46301 1.8403113e-38
1183.26 379.496 -430.67001 1.8403113e-38
1184.15 413.16 -430.996 1.8403113e-38
1182.48 423.75101 -430.38901 1.8403113e-38
1183.36 435.41699 -430.70599 1.8403113e-38
1185.64 459.26801 -431.53601 1.8403113e-38
1185.73 482.55301 -431.569 1.8403113e-38
1187.76 495.246 -432.30899 1.8403113e-38
1185.38 505.98001 -431.44101 1.8403113e-38
1187.13 530.80902 -432.082 1.8403113e-38
1193.0601 1831.78 -434.237 1.8403113e-38
1195.1801 1871.55 -435.01001 1.8403113e-38
1192.38 1903.77 -433.98901 1.8403113e-38
1192.46 1942.11 -434.01999 1.8403113e-38
1183.54 1965.01 -430.77399 1.8403113e-38
1154.36 -2213.1699 -420.15399 1.8403113e-38
1154.13 -2165.1499 -420.06799 1.8403113e-38
1155.53 -1734.01 -420.578 1.8403113e-38
1155.8 -1669.4399 -420.677 1.8403113e-38
1155.26 -1637.35 -420.48099 1.8403113e-38
1159.6 -1613.64 -422.061 1.8403113e-38
1155.01 -1576.87 -420.38901 1.8403113e-38
1158.08 -1552.52 -421.50601 1.8403113e-38
1161.38 -1529.04 -422.707 1.8403113e-38
1158.23 -1496.78 -421.56 1.8403113e-38
1165.76 -1427.88 -424.30301 1.8403113e-38
1158.13 -1392.26 -421.52399 1.8403113e-38
1161.23 -1371.66 -422.651 1.8403113e-38
1165.26 -1352.66 -424.12 1.8403113e-38
1165.4399 -1329.09 -424.186 1.8403113e-38
1160.4301 -1299.53 -422.36301 1.8403113e-38
1159.95 -1276.21 -422.18799 1.8403113e-38
1161.66 -1256 -422.81 1.8403113e-38
1163.75 -1236.59 -423.569 1.8403113e-38
1164.3199 -1215.77 -423.77899 1.8403113e-38
1163.36 -1193.5699 -423.42801 1.8403113e-38
1167.29 -1177.28 -424.85699 1.8403113e-38
1170.37 -1160.3 -425.98001 1.8403113e-38
1167.33 -1136.92 -424.87399 1.8403113e-38
1170.64 -1120.76 -426.07599 1.8403113e-38
1166.38 -1096.92 -424.52802 1.8403113e-38
1165.2 -1076.72 -424.09698 1.8403113e-38
1173.3 -1066.26 -427.048 1.8403113e-38
1173.0699 -1047.55 -426.96399 1.8403113e-38
1175.39 -1031.63 -427.806 1.8403113e-38
1171.9399 -1010.39 -426.54999 1.8403113e-38
1169.62 -990.617 -425.70801 1.8403113e-38
1173.45 -976.87201 -427.10199 1.8403113e-38
1167.85 -954.68903 -425.061 1.8403113e-38
1170.6 -940.39801 -426.06201 1.8403113e-38
1179.72 -931.85498 -429.38199 1.8403113e-38
1171.98 -908.73901 -426.56699 1.8403113e-38
1172.78 -893.30902 -426.85599 1.8403113e-38
1169.6899 -874.85498 -425.73401 1.8403113e-38
1174.59 -863.224 -427.51599 1.8403113e-38
1179.38 -851.56799 -429.259 1.8403113e-38
1175.75 -833.34698 -427.93701 1.8403113e-38
1174.9399 -817.60901 -427.642 1.8403113e-38
1176.25 -803.69299 -428.11899 1.8403113e-38
1181.26 -792.68298 -429.94199 1.8403113e-38
1178.42 -775.97699 -428.91101 1.8403113e-38
1176.88 -746.21899 -428.35101 1.8403113e-38
1174.6899 -716.758 -427.55399 1.8403113e-38
1174.95 -703.203 -427.64801 1.8403113e-38
1177.48 -691.26599 -428.56601 1.8403113e-38
1178.27 -678.30499 -428.85501 1.8403113e-38
1178.12 -664.875 -428.802 1.8403113e-38
1174.58 -649.5 -427.51401 1.8403113e-38
1179.87 -639.65802 -429.43799 1.8403113e-38
1180.97 -627.34399 -429.836 1.8403113e-38
1181.12 -614.58002 -429.89099 1.8403113e-38
1178.65 -600.45398 -428.992 1.8403113e-38
1178.29 -575.20599 -428.86099 1.8403113e-38
1178.51 -502.72601 -428.94199 1.8403113e-38
1180.54 -480.20901 -429.67999 1.8403113e-38
1180.72 -89.051102 -429.74899 1.8403113e-38
1179.21 -69.106903 -429.19699 1.8403113e-38
1180.83 -29.632299 -429.78699 1.8403113e-38
1179.27 -9.8609896 -429.22 1.8403113e-38
1177.4301 0 -428.55099 1.8403113e-38
1180.83 29.632299 -429.78699 1.8403113e-38
1179.61 39.471298 -429.34201 1.8403113e-38
1178.3 49.289902 -428.867 1.8403113e-38
1179.21 69.106903 -429.19699 1.8403113e-38
1179.1 118.744 -429.159 1.8403113e-38
1179.79 138.80901 -429.41 1.8403113e-38
1180.66 169.09399 -429.72601 1.8403113e-38
1181.09 179.274 -429.88199 1.8403113e-38
1177.73 188.814 -428.65701 1.8403113e-38
1176.41 219.049 -428.17801 1.8403113e-38
1173.3 280.146 -427.047 1.8403113e-38
1176.42 291.44199 -428.18301 1.8403113e-38
1176.01 312.40201 -428.03299 1.8403113e-38
1175.23 333.43399 -427.74899 1.8403113e-38
1176.95 344.70599 -428.37399 1.8403113e-38
1175.66 387.75201 -427.90601 1.8403113e-38
1180.41 400.56799 -429.63501 1.8403113e-38
1177.12 444.19901 -428.43701 1.8403113e-38
1180.09 468.405 -429.51901 1.8403113e-38
1181.1899 515.87799 -429.91599 1.8403113e-38
1136.17 -3659.8101 -413.53201 1.8403113e-38
1131.8 -3530.6799 -411.94101 1.8403113e-38
1130.76 -3420.03 -411.56299 1.8403113e-38
1137.28 -3340.1101 -413.936 1.8403113e-38
1140.48 -3253.7 -415.10001 1.8403113e-38
1142.34 -3167.49 -415.77802 1.8403113e-38
1144.4399 -3086.21 -416.54099 1.8403113e-38
1143.99 -3001.3799 -416.379 1.8403113e-38
1144.87 -2924.29 -416.69901 1.8403113e-38
1144.9 -2848.3501 -416.711 1.8403113e-38
1143.08 -2770.78 -416.047 1.8403113e-38
1147.11 -2712.01 -417.51199 1.8403113e-38
1146.29 -2643.22 -417.216 1.8403113e-38
1148.47 -2584.78 -418.008 1.8403113e-38
1146.77 -2519.1599 -417.38901 1.8403113e-38
1150.5699 -2469.3101 -418.772 1.8403113e-38
1150.12 -2411.3999 -418.61099 1.8403113e-38
1150.8 -2358.21 -418.85599 1.8403113e-38
1149.0601 -2301.5901 -418.22299 1.8403113e-38
1152.65 -2258.6699 -419.53101 1.8403113e-38
1150.15 -2111.0901 -418.61899 1.8403113e-38
1150.21 -2066.98 -418.64401 1.8403113e-38
1150.98 -2025.67 -418.92401 1.8403113e-38
1147.51 -1977.52 -417.659 1.8403113e-38
1147.95 -1938.28 -417.82101 1.8403113e-38
1146.4301 -1896.6 -417.26401 1.8403113e-38
1149.0601 -1863.7 -418.224 1.8403113e-38
1144.95 -1819.77 -416.72601 1.8403113e-38
1152.96 -1798.22 -419.64099 1.8403113e-38
1153.22 -1763.9399 -419.73801 1.8403113e-38
1150.77 -1693.28 -418.84698 1.8403113e-38
1147.12 522.64001 -417.517 1.8403113e-38
1153.04 1947.86 -419.67401 1.8403113e-38
1136.12 1955.65 -413.51401 1.8403113e-38
1110.52 -3685.48 -404.19699 1.8403113e-38
1102.9301 534.34698 -401.43399 1.8403113e-38
1106.22 565.36902 -402.6315 1.8403113e-38
1124.98 1974.7 -409.45801 1.8403113e-38
1109.63 1985.75 -403.871 1.8403113e-38
1125.12 2104.5601 -409.509 1.8403113e-38
1076.25 -3679.1399 -391.72101 1.8403113e-38
1097.1899 508.51099 -399.34299 1.8403113e-38
1098.02 520.26703 -399.64801 1.8403113e-38
1097.14 577.89301 -399.32401 1.8403113e-38
1095.04 1998.4399 -398.56299 1.8403113e-38
1044.34 -3681.1399 -380.10699 1.8403113e-38
1062.96 2018.08 -386.88501 1.8403113e-38
1053.38 2042.0601 -383.397 1.8403113e-38
1060.46 2103.9299 -385.97699 1.8403113e-38
1021.14 2110.2 -371.664 1.8403113e-38
1043.5699 2113.51 -379.82901 1.8403113e-38
1008.47 -3666.3799 -367.052 1.8403113e-38
998.83197 2106.6399 -363.54501 1.8403113e-38
970.63898 -3641.52 -353.284 1.8403113e-38
969.67902 513.10498 -352.93399 1.8403113e-38
980.77399 2112.9099 -356.97198 1.8403113e-38
949.16302 511 -345.46701 1.8403113e-38
937.00098 2105.52 -341.04001 1.8403113e-38
960.10999 2112.5601 -349.45099 1.8403113e-38
906.82599 504.737 -330.05801 1.8403113e-38
924.69897 506.01599 -336.56299 1.8403113e-38
907.46399 515.18402 -330.29001 1.8403113e-38
847.953 -3237.99 -308.63 1.8403113e-38
830.284 511.66199 -302.198 1.8403113e-38
843.07202 511.09399 -306.853 1.8403113e-38
799.58301 -3567.9099 -291.02399 1.8403113e-38
804.00299 -3437.21 -292.633 1.8403113e-38
806.33197 -3306.71 -293.48099 1.8403113e-38
820.52802 -3240.75 -298.64801 1.8403113e-38
821.414 514.86298 -298.97 1.8403113e-38
817.16498 521.38098 -297.42401 1.8403113e-38
821.27802 534.24701 -298.92099 1.8403113e-38
817.63098 541.34998 -297.59299 1.8403113e-38
801.09302 558.23401 -291.57401 1.8403113e-38
781.90302 -4464.3501 -284.58899 1.8403113e-38
784.98602 -4244.9702 -285.71201 1.8403113e-38
789.58301 -4056.4199 -287.38501 1.8403113e-38
793.71002 -3882.8701 -288.88699 1.8403113e-38
796.47803 -3717.4199 -289.89401 1.8403113e-38
785.38202 535.61499 -285.85501 1.8403113e-38
793.52502 532.36603 -288.819 1.8403113e-38
790.48901 1124.24 -287.71399 1.8403113e-38
746.797 -4481.23 -271.81201 1.8403113e-38
759.53802 814.30499 -276.44901 1.8403113e-38
754.03101 821.78003 -274.44501 1.8403113e-38
727.117 516.065 -264.64899 1.8403113e-38
739.47101 517.15601 -269.14499 1.8403113e-38
722.862 521.70697 -263.10001 1.8403113e-38
723.39801 550.73199 -263.29501 1.8403113e-38
724.66302 812.34698 -263.75601 1.8403113e-38
720.87097 821.89502 -262.37601 1.8403113e-38
708.84802 -4477.9902 -258 1.8403113e-38
694.74597 534.03198 -252.867 1.8403113e-38
687.30298 575.46399 -250.158 1.8403113e-38
696.758 595.32202 -253.599 1.8403113e-38
702.11102 728.46899 -255.548 1.8403113e-38
694.08698 799.70001 -252.627 1.8403113e-38
697.68597 819.40002 -253.937 1.8403113e-38
698.211 835.20697 -254.12801 1.8403113e-38
671.00098 -4474.3901 -244.224 1.8403113e-38
673.45398 523.46997 -245.117 1.8403113e-38
677.52002 536.64301 -246.597 1.8403113e-38
670.00897 548.32703 -243.86301 1.8403113e-38
681.41199 549.92999 -248.01401 1.8403113e-38
683.40302 692.823 -248.73801 1.8403113e-38
634.289 -4479.3599 -230.862 1.8403113e-38
636.12598 1401.21 -231.53101 1.8403113e-38
659.21301 1426.9399 -239.93401 1.8403113e-38
607.47302 1394.7 -221.10201 1.8403113e-38
621.922 1398.5 -226.36099 1.8403113e-38
596.68597 -4476.04 -217.17599 1.8403113e-38
582.01599 1396.05 -211.836 1.8403113e-38
593.44598 1391.6801 -215.99699 1.8403113e-38
559.17798 -4472.3599 -203.524 1.8403113e-38
554.27899 1389.29 -201.741 1.8403113e-38
568.71399 1394.64 -206.995 1.8403113e-38
526.62402 1380.98 -191.67599 1.8403113e-38
540.547 1385.6899 -196.743 1.8403113e-38
520.14502 -4450.4199 -189.317 1.8403113e-38
501.51199 1379.74 -182.535 1.8403113e-38
512.81201 1376.12 -186.64799 1.8403113e-38
483.061 -4447.0098 -175.82001 1.8403113e-38
476.56601 1377.99 -173.45599 1.8403113e-38
487.85199 1374.6 -177.564 1.8403113e-38
449.677 1367.02 -163.66901 1.8403113e-38
463.064 1372.58 -168.541 1.8403113e-38
412.55499 1360.22 -150.158 1.8403113e-38
425.89099 1367.15 -155.01199 1.8403113e-38
438.45499 1370.0601 -159.584 1.8403113e-38
388.63901 1357.67 -141.453 1.8403113e-38
399.76199 1355.1 -145.502 1.8403113e-38
365.077 1355.63 -132.877 1.8403113e-38
376.18399 1353.28 -136.92 1.8403113e-38
341.50201 1352.14 -124.297 1.8403113e-38
353.95099 1357.88 -128.828 1.8403113e-38
317.97 1347.21 -115.732 1.8403113e-38
329.16501 1346.28 -119.806 1.8403113e-38
307.05399 1350.01 -111.758 1.8403113e-38
283.53601 1342.42 -103.199 1.8403113e-38
294.79901 1342.8 -107.298 1.8403113e-38
249.08299 1332.66 -90.6586 1.8403113e-38
271.94901 1338.9399 -98.981201 1.8403113e-38
261.069 1341.3199 -95.0215 1.8403113e-38
227.617 1339.88 -82.845596 1.8403113e-38
238.239 1334.83 -86.711998 1.8403113e-38
193.817 1328.52 -70.543503 1.8403113e-38
204.774 1328.76 -74.531502 1.8403113e-38
216.035 1332.88 -78.630302 1.8403113e-38
171.772 1323.74 -62.519798 1.8403113e-38
182.625 1323.1801 -66.469902 1.8403113e-38
144.13699 -464.133 -52.461601 1.8403113e-38
138.461 -426.41501 -50.395802 1.8403113e-38
139.175 1323.8 -50.655602 1.8403113e-38
150.03 1323.55 -54.6063 1.8403113e-38
160.849 1322.1899 -58.5443 1.8403113e-38
120.938 -423.98401 -44.018002 1.8403113e-38
117.462 -412 -42.752499 1.8403113e-38
126.034 -417.896 -45.8727 1.8403113e-38
132.87851 -417.67401 -48.363701 1.8403113e-38
117.462 1317 -42.752499 1.8403113e-38
128.261 1316.95 -46.6833 1.8403113e-38
