# .PCD v0.7 - Point Cloud Data file format
VERSION 0.7
FIELDS x y z rgb
SIZE 4 4 4 4
TYPE F F F F
COUNT 1 1 1 1
WIDTH 343
HEIGHT 1
VIEWPOINT 0 0 0 1 0 0 0
POINTS 343
DATA ascii
1343.52 201.836 -301.65701 1.8403113e-38
1358.64 216.033 -305.41101 1.8403113e-38
1360.3101 229.33099 -304.57901 1.8403113e-38
1372.39 243.32201 -307.29401 1.8403113e-38
1360.83 253.677 -302.16699 1.8403113e-38
1372.67 267.91901 -304.77399 1.8403113e-38
1379.4 282.918 -305.52301 1.8403113e-38
1369.75 291.84 -301.215 1.8403113e-38
1386.65 321.565 -303.93399 1.8403113e-38
885.25098 -1205.6899 -291.85599 1.8403113e-38
907.349 -1130.4399 -291.543 1.8403113e-38
1080.87 -551.18701 -290.33099 1.8403113e-38
1122.77 -413.26801 -290.245 1.8403113e-38
1142.75 -345.59299 -290.00101 1.8403113e-38
1146.55 -335.28699 -290.22699 1.8403113e-38
1148.97 -326.16299 -290.099 1.8403113e-38
1158.99 -317.35199 -292.651 1.8403113e-38
1158.53 -307.48001 -291.44101 1.8403113e-38
1163.84 -297.41199 -292.21799 1.8403113e-38
1165.97 -288.15302 -291.97601 1.8403113e-38
1172.04 -278.15799 -293.02499 1.8403113e-38
1169.42 -267.92599 -291.02301 1.8403113e-38
1179.01 -248.821 -292.32901 1.8403113e-38
1181.98 -238.108 -292.22198 1.8403113e-38
1188.3101 -218.22099 -292.31299 1.8403113e-38
1190.78 -208.908 -292.17999 1.8403113e-38
1189.67 -197.576 -290.58701 1.8403113e-38
1193.84 -188.467 -291.073 1.8403113e-38
1205.53 -148.01801 -290.83899 1.8403113e-38
1367.95 304.64899 -299.22501 1.8403113e-38
1363.49 328.233 -295.16599 1.8403113e-38
1377.34 344.07599 -298.30099 1.8403113e-38
1365.9399 354.06201 -293.271 1.8403113e-38
1371.3199 367.52701 -293.70999 1.8403113e-38
1367.02 379.758 -290.91199 1.8403113e-38
1378.5 395.58099 -293.22501 1.8403113e-38
1391.24 452.74701 -291.58099 1.8403113e-38
767.44598 -1499.41 -282.09201 1.8403113e-38
776.69397 -1455.3199 -280.621 1.8403113e-38
783.26398 -1440.33 -281.314 1.8403113e-38
792.14502 -1399.01 -280.009 1.8403113e-38
803.401 -1389.83 -282.95099 1.8403113e-38
806.39398 -1369.72 -281.854 1.8403113e-38
812.63599 -1351.99 -282.14099 1.8403113e-38
816.07098 -1333.64 -281.38501 1.8403113e-38
822.31097 -1316.77 -281.763 1.8403113e-38
829.72198 -1305.95 -283.19199 1.8403113e-38
835.06403 -1288.25 -283.168 1.8403113e-38
840.159 -1274.09 -283.436 1.8403113e-38
845.56897 -1257.23 -283.52499 1.8403113e-38
849.78198 -1242.28 -283.401 1.8403113e-38
864.27698 -1239.92 -288.19601 1.8403113e-38
862.34003 -1216.12 -284.98999 1.8403113e-38
869.65002 -1203.25 -286.16599 1.8403113e-38
880.724 -1176.2 -287.14301 1.8403113e-38
879.42297 -1155.0601 -284.44101 1.8403113e-38
886.60303 -1142.95 -285.65201 1.8403113e-38
889.987 -1128.87 -285.33301 1.8403113e-38
900.52698 -1103.42 -286.29501 1.8403113e-38
904.74402 -1088.23 -286.147 1.8403113e-38
904.47498 -1070.49 -284.16699 1.8403113e-38
914.362 -1062.77 -286.78699 1.8403113e-38
912.49597 -1043.65 -284.104 1.8403113e-38
915.95599 -1028.58 -283.70401 1.8403113e-38
919.88898 -1016.87 -283.828 1.8403113e-38
928.69501 -1008.27 -285.979 1.8403113e-38
931.763 -995.82202 -285.72198 1.8403113e-38
932.64697 -978.67798 -284.207 1.8403113e-38
934.75403 -965.59198 -283.548 1.8403113e-38
941.79401 -955.48798 -284.92401 1.8403113e-38
946.94098 -945.85797 -285.69199 1.8403113e-38
953.78601 -935.66602 -286.98999 1.8403113e-38
957.401 -924.633 -287.07501 1.8403113e-38
957.23602 -907.716 -285.21799 1.8403113e-38
961.26501 -897.38599 -285.521 1.8403113e-38
967.63599 -887.12201 -286.647 1.8403113e-38
972.85797 -878.05603 -287.50101 1.8403113e-38
976.92999 -865.79303 -287.61401 1.8403113e-38
981.26001 -856.04797 -288.08499 1.8403113e-38
977.95001 -837.51801 -284.961 1.8403113e-38
985.62299 -830.91199 -286.92999 1.8403113e-38
988.44702 -818.06299 -286.54599 1.8403113e-38
987.24597 -804.07397 -284.64001 1.8403113e-38
994.91101 -795.492 -286.39499 1.8403113e-38
1002.31 -788.70001 -288.24701 1.8403113e-38
1002.4 -774.11401 -286.728 1.8403113e-38
1003.66 -762.612 -285.94299 1.8403113e-38
1015.51 -757.27802 -289.5 1.8403113e-38
1014.3 -744.06299 -287.67499 1.8403113e-38
1017.65 -732.41302 -287.60001 1.8403113e-38
1018.47 -720.96503 -286.66901 1.8403113e-38
1023.815 -704.97803 -286.83002 1.8403113e-38
1031.29 -690.57599 -287.89999 1.8403113e-38
1034.05 -680.76202 -287.815 1.8403113e-38
1035.9301 -668.604 -287.177 1.8403113e-38
1038.49 -658.802 -287.02701 1.8403113e-38
1040.14 -646.68298 -286.30899 1.8403113e-38
1044.12 -637.87701 -286.758 1.8403113e-38
1051.2 -629.16101 -288.298 1.8403113e-38
1051.79 -618.38098 -287.354 1.8403113e-38
1053.8101 -606.76501 -286.82199 1.8403113e-38
1063.23 -601.104 -289.49799 1.8403113e-38
1065.0601 -589.44299 -288.897 1.8403113e-38
1064.4301 -578.26703 -287.48901 1.8403113e-38
1073.55 -570.58801 -289.845 1.8403113e-38
1072.73 -559.44 -288.37399 1.8403113e-38
1074.79 -537.59998 -286.76801 1.8403113e-38
1083.865 -524.54602 -288.539 1.8403113e-38
1090.24 -510.18399 -289.23099 1.8403113e-38
1091.41 -500.34201 -288.591 1.8403113e-38
1092.21 -488.755 -287.63699 1.8403113e-38
1093.2 -478.95099 -286.93799 1.8403113e-38
1099 -469.55701 -287.95901 1.8403113e-38
1101.5699 -460.448 -287.884 1.8403113e-38
1106.35 -450.60599 -288.50101 1.8403113e-38
1105.25 -440.12601 -287.00299 1.8403113e-38
1113.38 -431.53299 -288.92099 1.8403113e-38
1115.65 -422.34601 -288.73199 1.8403113e-38
1124 -403.72299 -289.659 1.8403113e-38
1127.41 -393.34 -289.73901 1.8403113e-38
1125.79 -382.94699 -288.07001 1.8403113e-38
1129.01 -372.55399 -288.08499 1.8403113e-38
1130.8101 -363.302 -287.728 1.8403113e-38
1137.47 -353.896 -289.04599 1.8403113e-38
1169.78 -256.80099 -289.965 1.8403113e-38
1174.37 -227.239 -288.418 1.8403113e-38
1190.67 -176.95599 -288.74399 1.8403113e-38
1193.76 -167.698 -288.83401 1.8403113e-38
1199.77 -157.146 -289.80499 1.8403113e-38
1202.92 -136.64799 -288.72101 1.8403113e-38
1201.01 -126.924 -287.021 1.8403113e-38
1211.38 -116.401 -289.513 1.8403113e-38
1210.25 -106.707 -288.08899 1.8403113e-38
1211.04 -95.582497 -287.17801 1.8403113e-38
1216.35 -86.117104 -288.01999 1.8403113e-38
1219.78 -74.9916 -288.03101 1.8403113e-38
1221.16 -65.335197 -287.48599 1.8403113e-38
1226.3 -54.117199 -288.082 1.8403113e-38
1223.75 -44.4277 -286.16199 1.8403113e-38
1231.54 -33.0522 -287.664 1.8403113e-38
1232.61 -23.274 -286.995 1.8403113e-38
1236.4301 -11.82 -287.108 1.8403113e-38
1237.34 -1.9895101 -286.37701 1.8403113e-38
1241.92 9.6250496 -286.737 1.8403113e-38
1241.71 19.452499 -285.62 1.8403113e-38
1247.05 31.258699 -286.22101 1.8403113e-38
1250.46 41.4338 -286.32501 1.8403113e-38
1248.99 52.813099 -284.603 1.8403113e-38
1256.9399 63.542198 -286.23099 1.8403113e-38
1256.22 75.064301 -284.755 1.8403113e-38
1259.29 85.442101 -284.71799 1.8403113e-38
1263.08 97.586899 -284.746 1.8403113e-38
1268.79 108.473 -285.57501 1.8403113e-38
1275.1899 121.206 -286.44901 1.8403113e-38
1271.3199 130.841 -284.077 1.8403113e-38
1280.3199 144.196 -285.79001 1.8403113e-38
1280.03 154.472 -284.595 1.8403113e-38
1285.0601 167.39999 -284.97 1.8403113e-38
1296.73 180.078 -287.68701 1.8403113e-38
1369.4301 406.23499 -288.93701 1.8403113e-38
1372.52 419.34601 -288.61801 1.8403113e-38
1371.36 432.89899 -286.772 1.8403113e-38
1386.2 465.09399 -288.51199 1.8403113e-38
1389.66 478.922 -288.246 1.8403113e-38
1398.6 497.19501 -289.41299 1.8403113e-38
1391.15 506.68201 -285.81 1.8403113e-38
1398.87 524.81201 -286.569 1.8403113e-38
721.86102 -1607.09 -277.67801 1.8403113e-38
727.16498 -1585.02 -277.177 1.8403113e-38
735.97498 -1566.49 -278.27301 1.8403113e-38
742.659 -1548.9 -278.728 1.8403113e-38
749.35797 -1526.79 -278.70801 1.8403113e-38
753.513 -1504.79 -277.81299 1.8403113e-38
766.492 -1467.79 -278.396 1.8403113e-38
784.703 -1411.39 -278.73599 1.8403113e-38
1286.59 487.05499 -251.50301 1.8403113e-38
1788.39 2105 -254.076 1.8403113e-38
1759.3199 2107.6799 -243.672 1.8403113e-38
1732.3 2107.05 -234.336 1.8403113e-38
1212.02 466.31799 -227.75301 1.8403113e-38
1201.3199 472.44901 -223.375 1.8403113e-38
1209.98 489.582 -224.57001 1.8403113e-38
1207.8199 499.84299 -222.724 1.8403113e-38
1212.6899 515.51898 -222.754 1.8403113e-38
1214.62 528.04401 -222.091 1.8403113e-38
1703.41 2109 -224.073 1.8403113e-38
1676.61 2107.7 -214.88 1.8403113e-38
1155.8 510.504 -203.48399 1.8403113e-38
1656.64 2121 -206.515 1.8403113e-38
1613.27 2095.6399 -194.118 1.8403113e-38
1086.9 484.548 -182.261 1.8403113e-38
1597.4 2114 -186.63901 1.8403113e-38
1064.55 484.42099 -174.495 1.8403113e-38
1570.4399 2110.6201 -177.614 1.8403113e-38
1026.59 485.12299 -161.20799 1.8403113e-38
1039.51 480.728 -166.17101 1.8403113e-38
1011.78 486.603 -155.896 1.8403113e-38
993.87799 487.58401 -149.56 1.8403113e-38
994.92401 498.17801 -148.797 1.8403113e-38
1253.54 1403.46 -142.52499 1.8403113e-38
1438.88 1957 -148.162 1.8403113e-38
1470.08 2115.1299 -142.202 1.8403113e-38
1490.64 2110.55 -149.84599 1.8403113e-38
937.63898 483.827 -130.384 1.8403113e-38
958.85901 487.47 -137.382 1.8403113e-38
1451.6801 2128.8401 -134.338 1.8403113e-38
915.90399 480.96399 -123.123 1.8403113e-38
918.513 492.14099 -122.842 1.8403113e-38
1145.83 1244.98 -121.892 1.8403113e-38
908.211 496.36899 -118.807 1.8403113e-38
889.836 504.39899 -111.556 1.8403113e-38
903.37903 502.65302 -116.456 1.8403113e-38
888.93201 513.32703 -110.292 1.8403113e-38
1092.28 1160.03 -112.285 1.8403113e-38
875.38702 514.76898 -105.424 1.8403113e-38
866.30499 528.862 -100.764 1.8403113e-38
871.99902 521.89398 -103.487 1.8403113e-38
1376.1 2123.51 -108.599 1.8403113e-38
851.82098 548.55298 -93.627602 1.8403113e-38
1332.05 2092.3601 -96.5784 1.8403113e-38
1322.29 2113.5601 -90.9272 1.8403113e-38
394.08499 -827.78998 -80.694199 1.8403113e-38
817.62 501.60999 -86.716202 1.8403113e-38
826.03101 518.81598 -87.813599 1.8403113e-38
841.31799 551.60699 -89.646698 1.8403113e-38
841.409 561.56799 -88.619102 1.8403113e-38
834.96802 572.84149 -85.178001 1.8403113e-38
826.14099 582.133 -81.117203 1.8403113e-38
863.96997 686.78497 -83.153297 1.8403113e-38
869.797 704.13599 -83.335899 1.8403113e-38
868.87903 717.13 -81.6343 1.8403113e-38
1299.4399 2118 -82.501099 1.8403113e-38
819.21698 586.30298 -78.263397 1.8403113e-38
822.12799 634.28802 -74.172699 1.8403113e-38
867.32898 727.742 -79.965897 1.8403113e-38
864.729 739.39398 -77.821602 1.8403113e-38
871.16699 758.54999 -78.024902 1.8403113e-38
863.46899 765.29102 -74.628502 1.8403113e-38
863.43402 778.15198 -73.248199 1.8403113e-38
864.25403 794.25897 -71.820503 1.8403113e-38
863.229 806.49103 -70.162598 1.8403113e-38
888.758 882.18701 -70.997299 1.8403113e-38
1274.9 2112.8 -74.512497 1.8403113e-38
788.02197 570.45599 -69.090698 1.8403113e-38
789.23199 581.51501 -68.335503 1.8403113e-38
796.79303 600.21503 -68.978203 1.8403113e-38
868.24902 827.90399 -69.632401 1.8403113e-38
866.22101 839.508 -67.6922 1.8403113e-38
870.26898 875.11902 -65.3134 1.8403113e-38
1252.16 2116.71 -66.180496 1.8403113e-38
1205.7 2115.23 -50.163502 1.8403113e-38
1232.52 2119.78 -59.015202 1.8403113e-38
1184.35 2114.3 -42.831902 1.8403113e-38
318.241 -651.565 -35.5499 1.8403113e-38
1162.24 2118.0801 -34.734402 1.8403113e-38
-132.408 -2069.98 -29.558001 1.8403113e-38
1141.46 2117.5901 -27.552 1.8403113e-38
228.145 -754.33698 -15.1207 1.8403113e-38
231.104 -741.34198 -14.7685 1.8403113e-38
234.28101 -726.19501 -14.2633 1.8403113e-38
240.13901 -727.59399 -16.451 1.8403113e-38
271.30099 -571.14301 -10.6569 1.8403113e-38
1098.3199 2119.0601 -12.38 1.8403113e-38
1119.41 2120.8999 -19.5264 1.8403113e-38
-195.78 -2041.4399 -4.4640002 1.8403113e-38
268.496 -548.96899 -7.3221898 1.8403113e-38
262.30301 -520.78998 -2.1688499 1.8403113e-38
1073.87 2116.4399 -4.1480598 1.8403113e-38
-152.985 -1853.48 0.63208097 1.8403113e-38
201.34801 -650.47699 5.2540002 1.8403113e-38
213.20399 -588.099 7.7620902 1.8403113e-38
229.67599 -530.96997 8.1050396 1.8403113e-38
231.621 -521.89001 8.3936701 1.8403113e-38
243.42099 -524.612 3.9969599 1.8403113e-38
252.06599 -529.49902 0.46774599 1.8403113e-38
234.948 -519.56702 7.4827399 1.8403113e-38
1052.96 2114.1399 2.8842001 1.8403113e-38
-80.554001 -1487.76 14.3203 1.8403113e-38
-91.526604 -1472.66 19.7458 1.8403113e-38
205.27901 -538.18402 15.83 1.8403113e-38
207.51001 -521.01349 16.879601 1.8403113e-38
223.481 -523.84998 11.0188 1.8403113e-38
214.4995 -515.58301 15.0243 1.8403113e-38
1027.54 2108.23 11.1054 1.8403113e-38
170.564 -535.32898 28.216999 1.8403113e-38
172.522 -521.70801 28.9844 1.8403113e-38
59.742001 -838.49701 34.545502 1.8403113e-38
136.80051 -545.80652 38.855103 1.8403113e-38
144.38049 -539.57751 36.87915 1.8403113e-38
157.903 -532.03003 32.974998 1.8403113e-38
162.05701 -534.18799 31.2997 1.8403113e-38
149.136 -527.70099 36.487301 1.8403113e-38
153.205 -529.94501 34.832199 1.8403113e-38
165.528 -528.388 30.7083 1.8403113e-38
-356.59698 -2089.04 46.450199 1.8403113e-38
68.004799 -748.92297 41.196899 1.8403113e-38
74.426102 -733.91602 40.558102 1.8403113e-38
116.403 -588.29401 41.435902 1.8403113e-38
104.9075 -574.38348 46.917 1.8403113e-38
111.844 -579.77002 43.929298 1.8403113e-38
98.150902 -569.89301 49.746399 1.8403113e-38
119.973 -569.97998 42.141399 1.8403113e-38
125.7655 -563.31 40.83445 1.8403113e-38
130.51401 -546.72101 40.946201 1.8403113e-38
735.12903 1468.52 44.844398 1.8403113e-38
-376.09799 -2092.0801 52.915298 1.8403113e-38
8.2846603 -832.63202 53.0807 1.8403113e-38
25.56115 -742.85449 56.616302 1.8403113e-38
58.820999 -693.20203 50.320499 1.8403113e-38
80.617104 -619.41101 50.5826 1.8403113e-38
85.638603 -597.37299 51.178799 1.8403113e-38
89.624298 -574.33698 52.2416 1.8403113e-38
94.289101 -576.091 50.4314 1.8403113e-38
663.79102 1365.46 58.713402 1.8403113e-38
679.12299 1371.96 54.067799 1.8403113e-38
40.956902 -648.87201 61.253799 1.8403113e-38
59.272701 -584.69598 61.704601 1.8403113e-38
58.730598 -512.97302 69.522202 1.8403113e-38
634.71503 1360.11 68.264801 1.8403113e-38
649.46503 1366 63.757401 1.8403113e-38
-22.864601 -721.88953 75.702347 1.8403113e-38
-30.2738 -714.71301 79.044701 1.8403113e-38
54.627201 -521.80902 70.010597 1.8403113e-38
608.03802 1359.75 77.513 1.8403113e-38
619.09003 1356.59 73.329597 1.8403113e-38
-80.4226 -846.836 82.447098 1.8403113e-38
-58.508999 -773.70697 82.5979 1.8403113e-38
-37.2882 -724.70203 80.423798 1.8403113e-38
-30.1964 -655.97101 85.2659 1.8403113e-38
589.84003 1348.4 82.639 1.8403113e-38
579.52197 1353.1899 86.740997 1.8403113e-38
-341.427 -1541.36 99.424698 1.8403113e-38
-119.536 -815.25897 99.420502 1.8403113e-38
-101.638 -797.12 95.119904 1.8403113e-38
-100.094 -764.52502 98.0495 1.8403113e-38
563.89697 1348.09 91.636497 1.8403113e-38
553.55902 1352.67 95.722397 1.8403113e-38
-344.27301 -1503.05 104.49 1.8403113e-38
-346.22299 -1470.1 108.674 1.8403113e-38
-154.70799 -915.54999 100.996 1.8403113e-38
525.63397 1344.95 104.621 1.8403113e-38
536.24402 1341.55 100.566 1.8403113e-38
514.17102 1351.64 109.324 1.8403113e-38
