# .PCD v0.7 - Point Cloud Data file format
VERSION 0.7
FIELDS x y z rgb
SIZE 4 4 4 4
TYPE F F F F
COUNT 1 1 1 1
WIDTH 318
HEIGHT 1
VIEWPOINT 0 0 0 1 0 0 0
POINTS 318
DATA ascii
252 -1210 134 9.2197031e-39
257.09201 -1203.9771 135.364 9.2197031e-39
262.25 -1207.907 136.746 9.2197031e-39
272.29401 -1201.6331 139.438 9.2197031e-39
267.17099 -1199.7939 138.065 9.2197031e-39
273.38699 -774.09601 139.7305 9.2197031e-39
272.98801 -454.61499 139.62399 9.2197031e-39
271.07001 -439.20801 139.11 9.2197031e-39
268.09201 1308.9301 138.312 9.2197031e-39
252.00101 1311 134 9.2197031e-39
277.112 -1195.433 140.729 9.2197031e-39
282.23099 -1197.1799 142.10001 9.2197031e-39
286.556 -1184.907 143.259 9.2197031e-39
291.14801 -1179.585 144.49001 9.2197031e-39
294.89499 -1164.255 145.494 9.2197031e-39
299.31299 -1159.8611 146.677 9.2197031e-39
299.49399 -1110.6379 146.726 9.2197031e-39
289.25699 -966.979 143.983 9.2197031e-39
290.70901 -951.724 144.37199 9.2197031e-39
281.85367 -795.23029 141.99933 9.2197031e-39
284.20401 -789.08301 142.629 9.2197031e-39
276.198 -778.24799 140.48399 9.2197031e-39
283.33301 -775.01898 142.396 9.2197031e-39
285.31198 -762.36066 142.92599 9.2197031e-39
294.8707 -763.71735 145.487 9.2197031e-39
303.14767 -762.94098 147.70534 9.2197031e-39
285.64865 -754.76904 143.01601 9.2197031e-39
293.56174 -753.82275 145.13651 9.2197031e-39
303.888 -756.01099 147.903 9.2197031e-39
302.29999 -747.052 147.478 9.2197031e-39
300.811 -736.97449 147.07899 9.2197031e-39
308.23401 -466.10901 149.06799 9.2197031e-39
276.073 -451.07098 140.45 9.2197031e-39
287.04834 -454.45898 143.39101 9.2197031e-39
291.85248 -453.70801 144.6785 9.2197031e-39
308.556 -458.646 149.15401 9.2197031e-39
275.875 -443.94501 140.397 9.2197031e-39
285.8905 -444.92151 143.08099 9.2197031e-39
297.19962 -445.14102 146.11121 9.2197031e-39
304.90533 -444.02197 148.17599 9.2197031e-39
310.50101 -442.22501 149.675 9.2197031e-39
279.34 -439.47601 141.326 9.2197031e-39
282.72852 -432.496 142.23401 9.2197031e-39
308.46301 -437.17648 149.1295 9.2197031e-39
274.9165 -425.608 140.1405 9.2197031e-39
286.32648 -429.15851 143.19751 9.2197031e-39
284.16599 1307.71 142.619 9.2197031e-39
300.396 1313.34 146.968 9.2197031e-39
315.04849 -461.6235 150.894 9.2197031e-39
314.29434 -453.948 150.69167 9.2197031e-39
312.66302 -442.56598 150.255 9.2197031e-39
316.52301 1312.83 151.289 9.2197031e-39
348.961 1315.37 159.981 9.2197031e-39
332.98099 1320.17 155.69901 9.2197031e-39
365.75101 1325.4 164.479 9.2197031e-39
382.17801 1327.29 168.881 9.2197031e-39
398.41901 1326.04 173.233 9.2197031e-39
415.57401 1335.61 177.83 9.2197031e-39
448.785 1338.3199 186.728 9.2197031e-39
432.439 1340.03 182.349 9.2197031e-39
1301.73 1041.92 415.27499 9.2197031e-39
1342.9301 1043.3101 426.314 9.2197031e-39
1336.0601 1063.88 424.47299 9.2197031e-39
1420.4399 1064.96 447.08401 9.2197031e-39
1430.58 1694.78 449.79999 9.2197031e-39
1415.4 1763.8401 445.73099 9.2197031e-39
1429.15 1898.6499 449.41599 9.2197031e-39
1461.34 588.09998 458.04001 9.2197031e-39
1451.28 598.97998 455.345 9.2197031e-39
1441.8101 610.46997 452.80899 9.2197031e-39
1432.9301 622.58997 450.42899 9.2197031e-39
1432.71 1051.9301 450.37 9.2197031e-39
1468.3199 1719.2 459.91101 9.2197031e-39
1449.55 1781.6201 454.883 9.2197031e-39
1433.79 1853.9099 450.659 9.2197031e-39
1484 508.73999 464.11301 9.2197031e-39
1502.11 505.35999 468.966 9.2197031e-39
1486.91 531.08997 464.892 9.2197031e-39
1486.66 550.90002 464.82501 9.2197031e-39
1484.03 568.77002 464.121 9.2197031e-39
1471.3 577.13 460.71201 9.2197031e-39
1495.48 1047.73 467.19 9.2197031e-39
1470.3101 1168.26 460.44501 9.2197031e-39
1499.0601 1729.1101 468.14801 9.2197031e-39
1543.14 482.43005 479.961 9.2197031e-39
1517.3 499.17004 473.03601 9.2197031e-39
1533.23 493.42004 477.30301 9.2197031e-39
1506.83 1093.02 470.23099 9.2197031e-39
1542.49 1623.49 479.785 9.2197031e-39
1531.05 1647.99 476.72 9.2197031e-39
1512.46 1706.4399 471.73901 9.2197031e-39
1539.58 1708.8201 479.00601 9.2197031e-39
1570.36 485.67004 487.254 9.2197031e-39
1576.3199 1637.3301 488.85001 9.2197031e-39
1616.95 1618.1201 499.737 9.2197031e-39
1652.61 -3856.79 509.29199 9.2197031e-39
1655.17 -3787.5901 509.979 9.2197031e-39
1650.96 -3705.9199 508.85101 9.2197031e-39
1646.79 -3560.6299 507.733 9.2197031e-39
1623.95 1063.01 501.612 9.2197031e-39
1649.95 1064.89 508.57999 9.2197031e-39
1627.89 1679.55 502.668 9.2197031e-39
1680.59 -4452.8896 516.78998 9.2197031e-39
1657.79 -4294.6899 510.67899 9.2197031e-39
1663.91 -4217.8701 512.32001 9.2197031e-39
1660.34 -4119.98 511.36499 9.2197031e-39
1660.52 -4035.3201 511.41199 9.2197031e-39
1658.23 -3948.1899 510.797 9.2197031e-39
1666.95 -3538.0701 513.13599 9.2197031e-39
1658.1801 881.42004 510.78601 9.2197031e-39
1681.6801 1043.84 517.08197 9.2197031e-39
1675.45 1065.6801 515.41302 9.2197031e-39
1686.39 1520.78 518.34399 9.2197031e-39
1714.1 -3773.49 525.76898 9.2197031e-39
1698.6801 -3539.4299 521.63702 9.2197031e-39
1730.99 -3541.3301 530.29303 9.2197031e-39
1764.79 -3545.51 539.35101 9.2197031e-39
1752.66 1066.02 536.099 9.2197031e-39
1788.1801 -3529.1001 545.61798 9.2197031e-39
1830.14 -3547.47 556.86102 9.2197031e-39
1853.97 -3531.3601 563.24701 9.2197031e-39
1891.1801 -3539.29 573.216 9.2197031e-39
1920.3 -3532.1201 581.02002 9.2197031e-39
1955.4 -3534.9399 590.42499 9.2197031e-39
1988.66 -3533.9299 599.33502 9.2197031e-39
2018.95 -3527.46 607.453 9.2197031e-39
2054.98 -3529.9399 617.10602 9.2197031e-39
2089.6001 -3529.48 626.38397 9.2197031e-39
2124.8899 -3529.4399 635.83801 9.2197031e-39
2159.77 -3528.1599 645.18597 9.2197031e-39
2168.27 -443.866 647.46198 9.2197031e-39
2140.8999 -428.91299 640.12799 9.2197031e-39
2159.5701 -409.84198 645.133 9.2197031e-39
2148.29 -393.66101 642.10999 9.2197031e-39
2153.2 -375.745 643.42499 9.2197031e-39
2161.78 -357.23599 645.724 9.2197031e-39
2194.78 -3526.47 654.565 9.2197031e-39
2200.3401 -458.952 656.05701 9.2197031e-39
2227.1299 -3520.28 663.23297 9.2197031e-39
2271.8601 -3531.6299 675.21997 9.2197031e-39
2288.27 -489.51898 679.61798 9.2197031e-39
2252.5601 -473.32401 670.04797 9.2197031e-39
2318.0701 -3544.01 687.60101 9.2197031e-39
2321.9399 -506.4364 688.638 9.2197031e-39
2348.55 -3533.27 695.76898 9.2197031e-39
2343.8899 -524.3728 694.51898 9.2197031e-39
2388.3101 -3534.98 706.422 9.2197031e-39
2396.03 -561.25568 708.49103 9.2197031e-39
2374.3799 -542.46307 702.68903 9.2197031e-39
2429.2 -600 717.37799 9.2197031e-39
2413.6599 -580.46997 713.21503 9.2197031e-39
2452.3701 -3568.73 723.586 9.2197031e-39
2456.1599 -619.91388 724.60199 9.2197031e-39
2518.3401 -3603.1101 741.26398 9.2197031e-39
2537.1699 1215.33 746.30902 9.2197031e-39
2533.96 1245.75 745.44897 9.2197031e-39
2628.3501 -3692.8701 770.74103 9.2197031e-39
2659.05 1243.95 778.966 9.2197031e-39
2631.0701 1256 771.46899 9.2197031e-39
2679.1899 1225.66 784.362 9.2197031e-39
2729.04 333.37299 797.72101 9.2197031e-39
2744.8101 1240.83 801.94598 9.2197031e-39
2805.0801 -3864.01 818.09601 9.2197031e-39
2804.54 1250.36 817.95099 9.2197031e-39
2847.8601 -3860.1101 829.55798 9.2197031e-39
2880.8301 -3843.4299 838.39203 9.2197031e-39
2865.4199 1259.51 834.26202 9.2197031e-39
2919.99 -3834.01 848.88501 9.2197031e-39
2955.3799 -3819.5901 858.36902 9.2197031e-39
2936.22 384.06201 853.23401 9.2197031e-39
2934.6399 1273.3 852.81201 9.2197031e-39
2996.24 1280.45 869.31702 9.2197031e-39
3002.26 -3818.26 870.92999 9.2197031e-39
3016.47 -3563.6799 874.73798 9.2197031e-39
3053.2 -3820.79 884.578 9.2197031e-39
3054.21 -3552.1399 884.84998 9.2197031e-39
3064.6499 1290.99 887.646 9.2197031e-39
3095.8999 -3813.05 896.021 9.2197031e-39
3110.4399 -3508.0701 899.91699 9.2197031e-39
3104.97 -3452.27 898.45001 9.2197031e-39
3100.8799 -3398.8501 897.354 9.2197031e-39
3091.1599 -3340.95 894.74902 9.2197031e-39
3091.3601 -3293.5801 894.80499 9.2197031e-39
3108.9399 -3263.1399 899.513 9.2197031e-39
3105.95 -3214.04 898.71503 9.2197031e-39
3077.6499 -1089.531 891.12903 9.2197031e-39
3085.48 -1064.61 893.22803 9.2197031e-39
3112.99 -3776.27 900.60101 9.2197031e-39
3115.0601 -3723.46 901.15399 9.2197031e-39
3113.1399 -3562.0701 900.64001 9.2197031e-39
3122.05 -3182.8999 903.02698 9.2197031e-39
3244.95 -654.08502 935.95801 9.2197031e-39
3294.5901 -682.48352 949.25897 9.2197031e-39
3342.76 -3332.8799 962.16602 9.2197031e-39
3340.71 -36.164978 961.61798 9.2197031e-39
3374.8799 -58.973999 970.77301 9.2197031e-39
3521.99 27.437012 1010.19 9.2197031e-39
3593.1399 -933.06396 1029.26 9.2197031e-39
3590.05 -902.34302 1028.4301 9.2197031e-39
3582.8401 -871.39001 1026.49 9.2197031e-39
3569.5801 -840.17102 1022.94 9.2197031e-39
3595.97 -963.86304 1030.01 9.2197031e-39
3667.1499 1240.53 1049.09 9.2197031e-39
3660.04 1276.01 1047.1801 9.2197031e-39
3700.1299 -3595.3899 1057.92 9.2197031e-39
3706.98 -1007.531 1059.76 9.2197031e-39
3705.49 -818.67603 1059.36 9.2197031e-39
3706.1899 1105.6801 1059.55 9.2197031e-39
3699.5 1140.77 1057.75 9.2197031e-39
3693.3401 1176.3101 1056.1 9.2197031e-39
3683.3999 1210.0601 1053.4399 9.2197031e-39
3740.3301 970.27002 1068.6899 9.2197031e-39
3724.3101 1000.51 1064.4 9.2197031e-39
3720.3601 1036.38 1063.34 9.2197031e-39
3712.5601 1070.61 1061.25 9.2197031e-39
3775.6899 -791.18298 1078.17 9.2197031e-39
3759.8 -758.55603 1073.91 9.2197031e-39
3746.3201 935.56995 1070.3 9.2197031e-39
3819.8101 1405.5 1089.99 9.2197031e-39
3824.8799 782.96997 1091.35 9.2197031e-39
3891.54 304.59998 1109.21 9.2197031e-39
3888.47 338.65698 1108.39 9.2197031e-39
3880.4199 371.474 1106.23 9.2197031e-39
3865.9299 688.27002 1102.35 9.2197031e-39
3870.8 838.13 1103.65 9.2197031e-39
3926.1899 139.38501 1118.5 9.2197031e-39
3928.3401 174.34497 1119.0699 9.2197031e-39
3902.78 203.37 1112.22 9.2197031e-39
3898.7 236.97198 1111.13 9.2197031e-39
3896.21 271.01001 1110.46 9.2197031e-39
3899.1499 411.71997 1111.25 9.2197031e-39
3900.72 447.56995 1111.67 9.2197031e-39
3901.03 483.25 1111.76 9.2197031e-39
3909.6299 667 1114.0601 9.2197031e-39
3922.3501 896.79004 1117.47 9.2197031e-39
3932.3 -98.388 1120.13 9.2197031e-39
3934.6201 -64.184021 1120.76 9.2197031e-39
3940.3799 640.69995 1122.3 9.2197031e-39
4000.6799 -1495.98 1138.45 9.2197031e-39
3998.6599 -1459.9141 1137.91 9.2197031e-39
3986.6299 619.06006 1134.6899 9.2197031e-39
3987.5801 1001.91 1134.95 9.2197031e-39
4021.55 -1573.01 1144.05 9.2197031e-39
4016.46 -1535.6489 1142.6801 9.2197031e-39
4045.4399 -1434.765 1150.45 9.2197031e-39
4058.96 -1401.8579 1154.0699 9.2197031e-39
4079.8701 1596.6699 1159.67 9.2197031e-39
4062.05 1631.6599 1154.9 9.2197031e-39
4090.8301 -1627.8101 1162.61 9.2197031e-39
4085.49 -1371.4409 1161.1801 9.2197031e-39
4240.96 1068.5 1202.84 9.2197031e-39
4264.52 1945.6101 1209.15 9.2197031e-39
4268.71 631.77002 1210.27 9.2197031e-39
4273.8701 672.98999 1211.66 9.2197031e-39
4307.8101 -1725.09 1220.75 9.2197031e-39
4400.0898 -3895.22 1245.48 9.2197031e-39
4457.7998 -3881.0901 1260.9399 9.2197031e-39
4519.46 -3869.1499 1277.46 9.2197031e-39
4498.79 2200.9399 1271.92 9.2197031e-39
4553.79 -1265.5859 1286.66 9.2197031e-39
4565.9302 -1227.6699 1289.91 9.2197031e-39
4577.3301 -3853.3899 1292.97 9.2197031e-39
4569.1401 -1188.412 1290.77 9.2197031e-39
4568.1802 -1148.656 1290.52 9.2197031e-39
4583.6699 2202.21 1294.67 9.2197031e-39
4632.8999 -3835.1001 1307.86 9.2197031e-39
4671.0801 -4371.3101 1318.09 9.2197031e-39
4705.1001 -3828.0901 1327.2 9.2197031e-39
4749.9902 -4370.8896 1339.23 9.2197031e-39
4780.9399 2217.26 1347.53 9.2197031e-39
4830.7402 -4370.5703 1360.87 9.2197031e-39
4829.4199 2136 1360.51 9.2197031e-39
4901.9302 -4361.0703 1379.9399 9.2197031e-39
4874.4302 2218.8701 1372.58 9.2197031e-39
5533.7598 -4358.1001 1549.24 9.2197031e-39
5608.3799 -3610.8701 1569.24 9.2197031e-39
5618.8901 -4347.71 1572.05 9.2197031e-39
5645.4399 -4295.77 1579.17 9.2197031e-39
5637.5 -4220.7598 1577.04 9.2197031e-39
5631.9702 -4148.3301 1575.5601 9.2197031e-39
5633.0098 -4081.04 1575.84 9.2197031e-39
5634.1401 -4014.53 1576.14 9.2197031e-39
5627.9502 -3944.1399 1574.48 9.2197031e-39
5617.6401 -3872.1001 1571.72 9.2197031e-39
5617.4199 -3807 1571.66 9.2197031e-39
5613.98 -3740.6799 1570.74 9.2197031e-39
5614.0601 -3677.0901 1570.76 9.2197031e-39
5681.5498 -3402.5701 1588.84 9.2197031e-39
5676.1401 -3218.54 1587.39 9.2197031e-39
5681.3101 -3161.5601 1588.78 9.2197031e-39
5690.7002 -3593.8201 1591.29 9.2197031e-39
5690.8799 -3531.1799 1591.34 9.2197031e-39
5690.4199 -3468.77 1591.22 9.2197031e-39
5688.4702 -3345.0801 1590.7 9.2197031e-39
5686.9902 -3283.8101 1590.3 9.2197031e-39
5702.6899 -3112.4099 1594.51 9.2197031e-39
7245.8701 -852.84698 2008 9.2197031e-39
7266.75 -3757.6899 2013.59 9.2197031e-39
7262.8599 -3680.9099 2012.55 9.2197031e-39
7264.4702 -3607.1299 2012.99 9.2197031e-39
7264.48 -3533.1699 2012.99 9.2197031e-39
7266.4702 -3460.54 2013.52 9.2197031e-39
7256.9502 -3383.8 2010.97 9.2197031e-39
7258.4302 -3312.01 2011.37 9.2197031e-39
7256.52 -3239.3701 2010.85 9.2197031e-39
7253.9102 -3166.97 2010.16 9.2197031e-39
7259.7598 -3098.0801 2011.72 9.2197031e-39
7428.0298 -3085.76 2056.8101 9.2197031e-39
7629.6802 -3081.71 2110.8401 9.2197031e-39
7694.8701 551.57996 2128.3101 9.2197031e-39
7700.1401 621.28003 2129.72 9.2197031e-39
7774.77 -2981.0701 2149.72 9.2197031e-39
7810.6099 -3067.29 2159.3201 9.2197031e-39
7800.1099 -2914.72 2156.51 9.2197031e-39
7800.6201 -2048.4102 2156.6499 9.2197031e-39
7794.4702 -1976.86 2155 9.2197031e-39
7828.6201 -2849.2 2164.1499 9.2197031e-39
7837.98 -2777.99 2166.6599 9.2197031e-39
