# .PCD v0.7 - Point Cloud Data file format
VERSION 0.7
FIELDS x y z rgb
SIZE 4 4 4 4
TYPE F F F F
COUNT 1 1 1 1
WIDTH 295
HEIGHT 1
VIEWPOINT 0 0 0 1 0 0 0
POINTS 295
DATA ascii
119.741 -7697 32.352402 9.2197031e-39
147.64 -872.59998 39.8279 9.2197031e-39
145.58 -868.89502 39.275902 9.2197031e-39
137.75101 -851.85999 37.178299 9.2197031e-39
141.49701 -855.37402 38.18195 9.2197031e-39
129.37601 -842.65198 34.934101 9.2197031e-39
137.16199 -846.89148 37.020401 9.2197031e-39
148.242 -845.02899 39.989201 9.2197031e-39
127.584 -832.75201 34.4538 9.2197031e-39
131.84851 -836.41876 35.596699 9.2197031e-39
147.85699 -836.94098 39.886002 9.2197031e-39
145.24649 -235.254 39.1866 9.2197031e-39
127.782 -223.073 34.507 9.2197031e-39
139.965 -220.457 37.771301 9.2197031e-39
119.741 -216 32.352402 9.2197031e-39
123.795 -219.01801 33.438801 9.2197031e-39
134.106 -213.73199 36.20155 9.2197031e-39
178.728 -7697.73 48.158001 9.2197031e-39
148.758 -870.37201 40.127602 9.2197031e-39
148.433 -860.271 40.040401 9.2197031e-39
148.86099 -855.09698 40.155201 9.2197031e-39
167.168 -855.77435 45.060429 9.2197031e-39
156.52434 -845.41302 42.2085 9.2197031e-39
164.30501 -846.36255 44.293373 9.2197031e-39
149.42799 -838.63403 40.306999 9.2197031e-39
152.70599 -838.51593 41.185398 9.2197031e-39
167.32001 -835.3075 45.101051 9.2197031e-39
163.679 -824.979 44.125702 9.2197031e-39
175.14301 -573.40698 47.19725 9.2197031e-39
154.53682 -564.04578 41.675999 9.2197031e-39
169.58701 -565.56396 45.708698 9.2197031e-39
175.30634 -566.56201 47.241165 9.2197031e-39
155.655 -556.28247 41.975651 9.2197031e-39
163.70634 -555.67767 44.132999 9.2197031e-39
174.43933 -553.60767 47.008732 9.2197031e-39
169.086 -547.32001 45.574402 9.2197031e-39
174.04533 -544.17462 46.903301 9.2197031e-39
154.655 -536.95898 41.7075 9.2197031e-39
155.689 -524.91199 41.9846 9.2197031e-39
157.03549 -505.80301 42.345451 9.2197031e-39
157.76199 -487.617 42.540199 9.2197031e-39
178.728 -335.07401 48.157799 9.2197031e-39
180.787 -300.974 48.709599 9.2197031e-39
181.133 -274.72299 48.802399 9.2197031e-39
178.756 -265.272 48.165401 9.2197031e-39
167.06949 -252.68001 45.03405 9.2197031e-39
174.29199 -256.08252 46.969349 9.2197031e-39
162.142 -244.10901 43.713799 9.2197031e-39
157.22049 -233.114 42.395 9.2197031e-39
151.746 -226.15701 40.9282 9.2197031e-39
194.884 -258.806 52.487 9.2197031e-39
238.133 -7721.9302 64.075401 9.2197031e-39
302.32401 -7918.5298 81.275299 9.2197031e-39
363.466 -7925.6001 97.658401 9.2197031e-39
424.36301 -7923.1201 113.976 9.2197031e-39
1262.88 1573.4099 338.655 9.2197031e-39
1251.96 1650.99 335.73001 9.2197031e-39
1254.12 1707.8701 336.30801 9.2197031e-39
1298.9 1502.29 348.306 9.2197031e-39
1282.13 1516.3799 343.814 9.2197031e-39
1268.39 1536.51 340.13199 9.2197031e-39
1277.4399 1652.26 342.556 9.2197031e-39
1334 938.27002 357.71201 9.2197031e-39
1314.91 941.98999 352.59698 9.2197031e-39
1311.9399 968 351.802 9.2197031e-39
1316.52 1446.01 353.02899 9.2197031e-39
1311.71 1481.1101 351.73801 9.2197031e-39
1357.12 1474.75 363.90601 9.2197031e-39
1380.0699 940.34998 370.05701 9.2197031e-39
1448.54 1501.53 388.40201 9.2197031e-39
1424.16 1547.49 381.86899 9.2197031e-39
1464.8199 1252.25 392.76401 9.2197031e-39
1481.0601 1512.22 397.11499 9.2197031e-39
1455.67 1556.9399 390.31299 9.2197031e-39
1522.51 -3886.6799 408.224 9.2197031e-39
1518.87 937.21997 407.24799 9.2197031e-39
1516.99 1290.99 406.74399 9.2197031e-39
1509.61 1473.9399 404.767 9.2197031e-39
1517.01 1527.51 406.75 9.2197031e-39
1545.91 -4546.3501 414.492 9.2197031e-39
1552.08 -4464.4697 416.146 9.2197031e-39
1554.45 -4376.2803 416.78 9.2197031e-39
1549.89 -4274.4902 415.56 9.2197031e-39
1544.11 -4173.9902 414.01199 9.2197031e-39
1539.45 -4080.28 412.76199 9.2197031e-39
1541.96 -4007.03 413.43399 9.2197031e-39
1539.52 -3852.1399 412.78201 9.2197031e-39
1535.6801 -3773.3 411.75299 9.2197031e-39
1540.3 -3649.7 412.98901 9.2197031e-39
1561.86 668.06995 418.76599 9.2197031e-39
1556.63 687.18005 417.36499 9.2197031e-39
1531.34 787.13 410.58899 9.2197031e-39
1552.02 782.80005 416.13 9.2197031e-39
1546.84 940.85999 414.742 9.2197031e-39
1568.61 -3643.8899 420.577 9.2197031e-39
1600.0601 -3643.99 429.004 9.2197031e-39
1608.53 -3860.1599 431.27301 9.2197031e-39
1633.89 -3648.1599 438.06799 9.2197031e-39
1614.36 668.96997 432.83401 9.2197031e-39
1609.34 763.43994 431.48901 9.2197031e-39
1604.59 948.46997 430.215 9.2197031e-39
1624.41 941.52002 435.52701 9.2197031e-39
1658.22 -3633.49 444.58801 9.2197031e-39
1641.45 553.12 440.09299 9.2197031e-39
1677.0699 559.64001 449.638 9.2197031e-39
1694.6 -3641.3501 454.33499 9.2197031e-39
1706.5601 537.93005 457.53799 9.2197031e-39
1696.83 552.82996 454.93201 9.2197031e-39
1706.65 630.38 457.56299 9.2197031e-39
1729.8 -3646.1499 463.76599 9.2197031e-39
1752.16 -3627.1699 469.75601 9.2197031e-39
1736.96 -3091.1001 465.685 9.2197031e-39
1746.96 -3061.75 468.36401 9.2197031e-39
1751.47 -3025.1101 469.57401 9.2197031e-39
1752.05 -2983.76 469.728 9.2197031e-39
1730.91 534.26001 464.06299 9.2197031e-39
1733.41 804.20996 464.733 9.2197031e-39
1744.28 952.73999 467.646 9.2197031e-39
1789.51 -3634.71 479.76599 9.2197031e-39
1780.54 -2981.7 477.362 9.2197031e-39
1781.1 549.63 477.513 9.2197031e-39
1763.71 943.56006 472.85101 9.2197031e-39
1824.63 -3637.51 489.177 9.2197031e-39
1793.89 -3221.8301 480.93799 9.2197031e-39
1797.95 -2964.23 482.026 9.2197031e-39
1822.3199 -2956.0701 488.55701 9.2197031e-39
1812.8101 550.25 486.008 9.2197031e-39
1857.91 -3636.49 498.09299 9.2197031e-39
1834.66 -2932 491.86301 9.2197031e-39
1858.27 -2922.6399 498.189 9.2197031e-39
1838.3101 545.81006 492.84299 9.2197031e-39
1891.8101 -3635.9399 507.177 9.2197031e-39
1889.35 559.12 506.517 9.2197031e-39
1935.17 -3650.1799 518.79602 9.2197031e-39
1913.1899 -2952.3701 512.90503 9.2197031e-39
1924.72 560.42004 515.995 9.2197031e-39
1965.23 -3642.0601 526.84998 9.2197031e-39
1957.5601 -2967.49 524.79498 9.2197031e-39
1950.26 -2918.8601 522.83698 9.2197031e-39
1968.26 -2901.49 527.65997 9.2197031e-39
2004.36 -3647.79 537.33301 9.2197031e-39
1981.62 -2878.71 531.242 9.2197031e-39
1984.4 -2843.97 531.987 9.2197031e-39
1982.1801 -2804.1899 531.39001 9.2197031e-39
1999.84 -2787.28 536.12402 9.2197031e-39
2012.04 -2764.4199 539.39301 9.2197031e-39
1988.83 923.68005 533.17401 9.2197031e-39
2041.55 -3649.72 547.30103 9.2197031e-39
2028.03 -2745.8 543.677 9.2197031e-39
2034.37 -2717.0698 545.37598 9.2197031e-39
2040.75 -313.42099 547.08502 9.2197031e-39
2023.88 604.78003 542.56403 9.2197031e-39
2086.1299 -2735.76 559.24597 9.2197031e-39
2084.1599 -359.672 558.71802 9.2197031e-39
2068.8501 -344.19501 554.61603 9.2197031e-39
2053.4299 -328.96799 550.48401 9.2197031e-39
2059.1899 -291.495 552.026 9.2197031e-39
2064.1799 -272.11801 553.362 9.2197031e-39
2076.53 -250.888 556.67102 9.2197031e-39
2063.1599 606.58997 553.08899 9.2197031e-39
2072.51 966.52002 555.59497 9.2197031e-39
2111.76 -373.36499 566.11298 9.2197031e-39
2090.55 -228.952 560.42902 9.2197031e-39
2103.4099 -206.96301 563.875 9.2197031e-39
2107.6101 -186.88397 565.00098 9.2197031e-39
2120.98 -164.18701 568.58301 9.2197031e-39
2132.1599 -2747.3599 571.57703 9.2197031e-39
2150.74 -385.75699 576.55701 9.2197031e-39
2129.45 -142.50403 570.85199 9.2197031e-39
2197.28 -2777.03 589.02698 9.2197031e-39
2196.9099 -416.88901 588.92798 9.2197031e-39
2170.53 -401.61301 581.85999 9.2197031e-39
2255.9199 -86.687988 604.73901 9.2197031e-39
2984.03 -3513.99 799.836 9.2197031e-39
2981.5 -3462.78 799.159 9.2197031e-39
2978.3301 -3411.8201 798.30902 9.2197031e-39
2986.01 -3371.8401 800.36603 9.2197031e-39
2992.5 -3331.26 802.10699 9.2197031e-39
2987.6001 -3280.9399 800.79303 9.2197031e-39
3083.4299 -3320.52 826.47101 9.2197031e-39
3114.1101 -700 834.69098 9.2197031e-39
3170.98 -727.56708 849.92999 9.2197031e-39
3198.03 -672.18848 857.177 9.2197031e-39
3192.8501 -644.46643 855.789 9.2197031e-39
3206.75 -616.31232 859.513 9.2197031e-39
3463.76 -1033.3521 928.38 9.2197031e-39
3469.3301 -1003.389 929.87299 9.2197031e-39
3454.4299 -971.70398 925.87903 9.2197031e-39
3476.8301 -1095.985 931.88098 9.2197031e-39
3472.3501 -1064.804 930.68201 9.2197031e-39
3519.23 -946.10101 943.24103 9.2197031e-39
3561.21 -3689.6101 954.49103 9.2197031e-39
3579.23 1085.6801 959.32001 9.2197031e-39
3571.79 1120.96 957.32703 9.2197031e-39
3564.8799 1156.6899 955.474 9.2197031e-39
3599.26 -920.32397 964.68799 9.2197031e-39
3586.8301 -354.38 961.35699 9.2197031e-39
3616.22 949.65002 969.23199 9.2197031e-39
3601.3101 980.75 965.23602 9.2197031e-39
3594.8601 1016.02 963.50702 9.2197031e-39
3588.0701 1051.29 961.68903 9.2197031e-39
3645.6101 811.97998 977.10602 9.2197031e-39
3631.8401 843.39001 973.41699 9.2197031e-39
3624.8999 877.84998 971.55603 9.2197031e-39
3621.1699 913.93005 970.55798 9.2197031e-39
3643.77 1239.86 976.612 9.2197031e-39
3702.27 -894.37598 992.289 9.2197031e-39
3722.71 584.37 997.76501 9.2197031e-39
3703.55 613.85999 992.63202 9.2197031e-39
3725.9299 658.84998 998.62701 9.2197031e-39
3723.3799 694.88 997.94501 9.2197031e-39
3759.05 560.65002 1007.5 9.2197031e-39
3746.8799 817.16003 1004.24 9.2197031e-39
3802.6101 538.84998 1019.17 9.2197031e-39
3782.73 755.68994 1013.85 9.2197031e-39
3826.8301 -296.625 1025.66 9.2197031e-39
3841.52 -260.99799 1029.6 9.2197031e-39
3832.8899 -228 1027.29 9.2197031e-39
3845.1499 516.05005 1030.5699 9.2197031e-39
3883.8999 491.41003 1040.95 9.2197031e-39
3947.6101 1496.6699 1058.03 9.2197031e-39
3976.1699 1467.73 1065.6801 9.2197031e-39
3992.6899 -3205.46 1070.11 9.2197031e-39
3998.01 -3160.45 1071.53 9.2197031e-39
4034.3401 -3135.1001 1081.26 9.2197031e-39
4068.03 -3107.76 1090.29 9.2197031e-39
4091.52 -3074 1096.59 9.2197031e-39
4160.98 -3067.0801 1115.2 9.2197031e-39
4159.2998 1666.1001 1114.75 9.2197031e-39
4147.77 1805.6599 1111.66 9.2197031e-39
4256.8101 -3074.1101 1140.88 9.2197031e-39
4304.71 -3964.8501 1153.71 9.2197031e-39
4328.2402 2075.6899 1160.02 9.2197031e-39
4379.4302 -3963.2 1173.73 9.2197031e-39
4439.4902 -4131.5898 1189.83 9.2197031e-39
4417.0098 2079.96 1183.8 9.2197031e-39
4442.7202 -3951.6299 1190.6899 9.2197031e-39
4510.0698 -3942.0601 1208.74 9.2197031e-39
4494.8301 -3159.28 1204.65 9.2197031e-39
4488.8701 2071.8501 1203.0601 9.2197031e-39
4550.7402 -4481.4902 1219.63 9.2197031e-39
4569.6802 -3925.79 1224.71 9.2197031e-39
4631.2402 -4482.2197 1241.2 9.2197031e-39
4704.5298 -4475.5498 1260.84 9.2197031e-39
4706.3799 2097.04 1261.34 9.2197031e-39
4745.6802 2065 1271.87 9.2197031e-39
4790.98 -4478.3101 1284.01 9.2197031e-39
5407.0698 -4462.0703 1449.09 9.2197031e-39
5498.6401 -4456.1001 1473.62 9.2197031e-39
5515.6001 -4397.4297 1478.17 9.2197031e-39
5512.5298 -4325.6602 1477.35 9.2197031e-39
5511.9302 -4256.3896 1477.1899 9.2197031e-39
5559.0898 -3385.96 1489.8199 9.2197031e-39
5578.0601 -3704.6201 1494.9 9.2197031e-39
5572.3301 -3638.5701 1493.37 9.2197031e-39
5571.9302 -3576.03 1493.26 9.2197031e-39
5563.1201 -3509.71 1490.9 9.2197031e-39
5561.4199 -3447.71 1490.45 9.2197031e-39
5564.8901 -3328.6899 1491.38 9.2197031e-39
5563.1099 -3268.2 1490.9 9.2197031e-39
5596.8999 -3224.6101 1499.95 9.2197031e-39
5776.25 1606.76 1548.01 9.2197031e-39
6730.5 -819.46198 1803.7 9.2197031e-39
6901 1379.5601 1849.39 9.2197031e-39
6904.98 -883.94501 1850.45 9.2197031e-39
6903.4199 1313.8101 1850.03 9.2197031e-39
7126.0698 -3340.05 1909.6899 9.2197031e-39
7124.7598 -3197.1101 1909.34 9.2197031e-39
7115.0698 -1016.197 1906.75 9.2197031e-39
7124.23 -953.23102 1909.2 9.2197031e-39
7127.1299 -446.66498 1909.97 9.2197031e-39
7115.0698 -383.80301 1906.75 9.2197031e-39
7138.0298 -3859.29 1912.9 9.2197031e-39
7139.5 -3784.8201 1913.29 9.2197031e-39
7134 -3707.8899 1911.8199 9.2197031e-39
7134.8999 -3634.29 1912.0601 9.2197031e-39
7129.71 -3558.71 1910.67 9.2197031e-39
7127.3901 -3484.8799 1910.05 9.2197031e-39
7128.8799 -3413.0601 1910.45 9.2197031e-39
7131.6699 -3270.6499 1911.1899 9.2197031e-39
7148.1099 -1852.45 1915.6 9.2197031e-39
7150.8701 -1787.88 1916.34 9.2197031e-39
7146.3799 -1722.37 1915.13 9.2197031e-39
7152.8101 -1658.584 1916.86 9.2197031e-39
7148.1602 -1593.4241 1915.61 9.2197031e-39
7355.3101 -3206.3899 1971.12 9.2197031e-39
7537.8398 -3195.3101 2020.03 9.2197031e-39
7564.71 -228.58301 2027.22 9.2197031e-39
7572.96 -92.72699 2029.4399 9.2197031e-39
7578.04 -295.33801 2030.8 9.2197031e-39
7576.8301 -160.15503 2030.47 9.2197031e-39
7715.2002 -3179.3201 2067.55 9.2197031e-39
7711.79 -3103 2066.6399 9.2197031e-39
8049.4302 -3131.74 2157.1001 9.2197031e-39
8428.0303 -3166.3999 2258.55 9.2197031e-39
