# .PCD v0.7 - Point Cloud Data file format
VERSION 0.7
FIELDS x y z rgb
SIZE 4 4 4 4
TYPE F F F F
COUNT 1 1 1 1
WIDTH 297
HEIGHT 1
VIEWPOINT 0 0 0 1 0 0 0
POINTS 297
DATA ascii
119.741 -7698 32.352402 9.2197031e-39
146.48599 -874.82098 39.518799 9.2197031e-39
143.584 -865.16602 38.7411 9.2197031e-39
143.57901 -851.466 38.7397 9.2197031e-39
135.60139 -844.05615 36.6022 9.2197031e-39
148.242 -845.02899 39.989201 9.2197031e-39
128.702 -832.67603 34.753601 9.2197031e-39
130.897 -839.01953 35.341599 9.2197031e-39
147.85699 -836.94098 39.886002 9.2197031e-39
127.112 -824.76697 34.3274 9.2197031e-39
127.613 -233.07101 34.4618 9.2197031e-39
145.16251 -236.7515 39.164051 9.2197031e-39
123.778 -221.01801 33.4342 9.2197031e-39
119.741 -215 32.352402 9.2197031e-39
136.158 -213.297 36.751301 9.2197031e-39
140.133 -216.461 37.816502 9.2197031e-39
132.20599 -207.16901 35.692501 9.2197031e-39
178.737 -7698.73 48.160301 9.2197031e-39
149.075 -881.47699 40.212399 9.2197031e-39
148.758 -870.37201 40.127602 9.2197031e-39
149.04601 -856.07898 40.204601 9.2197031e-39
167.14125 -853.33105 45.053299 9.2197031e-39
156.14172 -845.60809 42.105984 9.2197031e-39
165.668 -848.53845 44.658546 9.2197031e-39
170.36301 -847.995 45.9165 9.2197031e-39
149.42799 -838.63403 40.306999 9.2197031e-39
167.313 -835.31598 45.0994 9.2197031e-39
166.084 -828.32397 44.7701 9.2197031e-39
175.739 -574.21851 47.357147 9.2197031e-39
155.13126 -563.34521 41.835224 9.2197031e-39
176.64325 -562.87573 47.599304 9.2197031e-39
156.98399 -556.1026 42.331768 9.2197031e-39
162.38499 -555.59802 43.778702 9.2197031e-39
172.87479 -555.11121 46.589539 9.2197031e-39
154.0535 -542.96948 41.546501 9.2197031e-39
168.20975 -547.81702 45.339649 9.2197031e-39
175.894 -544.51196 47.398701 9.2197031e-39
156.291 -521.97699 42.146099 9.2197031e-39
156.298 -509.72949 42.147949 9.2197031e-39
159.17101 -479.75101 42.917599 9.2197031e-39
180.32201 -325.211 48.584999 9.2197031e-39
180.636 -301.96201 48.669102 9.2197031e-39
181.133 -274.72299 48.802399 9.2197031e-39
176.9225 -265.01401 47.674202 9.2197031e-39
169.16499 -250.90601 45.5956 9.2197031e-39
172.242 -257.32401 46.420101 9.2197031e-39
164.06299 -244.30901 44.228447 9.2197031e-39
157.1785 -233.6125 42.383751 9.2197031e-39
151.746 -226.15701 40.9282 9.2197031e-39
185.86 -556.48901 50.068901 9.2197031e-39
196.226 -250.92801 52.8466 9.2197031e-39
238.133 -7721.9302 64.075401 9.2197031e-39
302.32401 -7918.5298 81.275299 9.2197031e-39
363.466 -7925.6001 97.658401 9.2197031e-39
424.36301 -7923.1201 113.976 9.2197031e-39
485.23599 -7920.0898 130.287 9.2197031e-39
1203.5601 932.58997 322.76001 9.2197031e-39
1232.24 944.85999 330.44501 9.2197031e-39
1258.42 1564.54 337.45999 9.2197031e-39
1258.4301 1664.4199 337.46201 9.2197031e-39
1261.3199 1723.1499 338.237 9.2197031e-39
1301.24 1506.6699 348.93301 9.2197031e-39
1280.75 1513.74 343.44299 9.2197031e-39
1287.4399 1573.5901 345.23599 9.2197031e-39
1276.12 1649.5801 342.203 9.2197031e-39
1317.24 945.18994 353.22 9.2197031e-39
1306.77 960.77002 350.41599 9.2197031e-39
1321.84 1455.54 354.453 9.2197031e-39
1320.27 1496.78 354.03299 9.2197031e-39
1377.0699 936.43005 369.25101 9.2197031e-39
1349.27 1460.97 361.80499 9.2197031e-39
1448.02 1500.6799 388.26501 9.2197031e-39
1424.65 1548.3501 382.00299 9.2197031e-39
1478.84 1272.6 396.522 9.2197031e-39
1490.42 1443.9199 399.62399 9.2197031e-39
1482.09 1513.8999 397.39401 9.2197031e-39
1461.22 1566.3201 391.79999 9.2197031e-39
1518.91 -3878.49 407.258 9.2197031e-39
1528.47 948.44995 409.82101 9.2197031e-39
1516.99 1290.99 406.74399 9.2197031e-39
1517.54 1528.3501 406.89099 9.2197031e-39
1549.71 -4556.6201 415.513 9.2197031e-39
1548.1801 -4454.23 415.10199 9.2197031e-39
1554.08 -4375.3604 416.68301 9.2197031e-39
1546.2 -4265.25 414.57001 9.2197031e-39
1544.11 -4173.9902 414.01199 9.2197031e-39
1542.91 -4088.54 413.69 9.2197031e-39
1541.96 -4007.03 413.43399 9.2197031e-39
1539.52 -3852.1399 412.78201 9.2197031e-39
1536.1 -3774.21 411.86401 9.2197031e-39
1540.3 -3649.7 412.98901 9.2197031e-39
1558.29 664.68994 417.811 9.2197031e-39
1552.39 683.08997 416.229 9.2197031e-39
1544.51 775.02002 414.117 9.2197031e-39
1529.99 785.69995 410.22601 9.2197031e-39
1557.1801 952.75 417.513 9.2197031e-39
1568.61 -3643.8899 420.577 9.2197031e-39
1600.0601 -3643.99 429.004 9.2197031e-39
1601.95 945.55005 429.509 9.2197031e-39
1608.96 -3861.0601 431.38699 9.2197031e-39
1629.8101 -3640.22 436.974 9.2197031e-39
1619.42 673.60999 434.19101 9.2197031e-39
1614.24 768.26001 432.80301 9.2197031e-39
1620.42 937.17004 434.45801 9.2197031e-39
1658.22 -3633.49 444.58801 9.2197031e-39
1642.21 553.73999 440.29599 9.2197031e-39
1694.6 -3641.3501 454.33499 9.2197031e-39
1703.47 535.53003 456.71201 9.2197031e-39
1689.17 546.73999 452.87799 9.2197031e-39
1680.88 562.71997 450.65799 9.2197031e-39
1705.15 629.12 457.16 9.2197031e-39
1729.8 -3646.1499 463.76599 9.2197031e-39
1752.16 -3627.1699 469.75601 9.2197031e-39
1735.85 -3089.47 465.388 9.2197031e-39
1746.96 -3061.75 468.36401 9.2197031e-39
1752.61 -3026.73 469.87799 9.2197031e-39
1752.05 -2983.76 469.728 9.2197031e-39
1724.7 529.5 462.39899 9.2197031e-39
1742.02 812.23999 467.04099 9.2197031e-39
1736.7 945.03003 465.61499 9.2197031e-39
1790 -3635.5701 479.89801 9.2197031e-39
1773.5601 -2972.1201 475.49301 9.2197031e-39
1782.67 550.81006 477.93201 9.2197031e-39
1766.49 946.33997 473.59601 9.2197031e-39
1824.63 -3637.51 489.177 9.2197031e-39
1792.79 -3220.1799 480.64499 9.2197031e-39
1798.53 -2965.02 482.18301 9.2197031e-39
1821.13 -2954.5 488.23801 9.2197031e-39
1809.66 547.93005 485.16501 9.2197031e-39
1857.91 -3636.49 498.09299 9.2197031e-39
1828.64 -2924.1699 490.25101 9.2197031e-39
1858.27 -2922.6399 498.189 9.2197031e-39
1838.3101 545.81006 492.84299 9.2197031e-39
1891.8101 -3635.9399 507.177 9.2197031e-39
1879 551.76001 503.74399 9.2197031e-39
1930.5 -3642.5901 517.54401 9.2197031e-39
1913.1899 -2952.3701 512.90503 9.2197031e-39
1934.33 567.13 518.56897 9.2197031e-39
1965.76 -3642.8999 526.99103 9.2197031e-39
1957.5601 -2967.49 524.79498 9.2197031e-39
1956.53 -2926.47 524.51801 9.2197031e-39
1968.89 -2902.24 527.83002 9.2197031e-39
2003.8199 -3646.95 537.19 9.2197031e-39
1988.66 -2886.95 533.12799 9.2197031e-39
1984.4 -2843.97 531.987 9.2197031e-39
1982.1801 -2804.1899 531.39001 9.2197031e-39
1997.21 -2784.3601 535.41803 9.2197031e-39
2013.37 -2765.8701 539.75 9.2197031e-39
2011.79 596.5 539.32599 9.2197031e-39
1982.1801 917.90002 531.39001 9.2197031e-39
2041.55 -3649.72 547.30103 9.2197031e-39
2023.34 -2740.77 542.41901 9.2197031e-39
2034.37 -2717.0698 545.37598 9.2197031e-39
2050.23 -311.513 549.62598 9.2197031e-39
2084.77 -2734.3501 558.88 9.2197031e-39
2083.21 -359.83701 558.46301 9.2197031e-39
2068.8501 -344.19501 554.61603 9.2197031e-39
2053.4299 -328.96799 550.48401 9.2197031e-39
2059.1899 -291.495 552.026 9.2197031e-39
2064.1799 -272.11801 553.362 9.2197031e-39
2076.53 -250.888 556.67102 9.2197031e-39
2076.24 969.70996 556.59399 9.2197031e-39
2111.76 -373.36499 566.11298 9.2197031e-39
2091.49 -228.728 560.68103 9.2197031e-39
2094.96 -209.064 561.60999 9.2197031e-39
2108.55 -186.64203 565.25201 9.2197031e-39
2119.1101 -164.68799 568.08197 9.2197031e-39
2131.47 -2746.6602 571.39203 9.2197031e-39
2149.79 -385.905 576.30103 9.2197031e-39
2129.45 -142.50403 570.85199 9.2197031e-39
2196.5801 -2776.3301 588.841 9.2197031e-39
2170.53 -401.61301 581.85999 9.2197031e-39
2203.6101 -415.97501 590.724 9.2197031e-39
2221.9299 713.33997 595.633 9.2197031e-39
2255.9199 -86.687988 604.73901 9.2197031e-39
2979.1299 -3509.1799 798.52197 9.2197031e-39
2982.21 -3463.46 799.34802 9.2197031e-39
2971.9199 -3405.74 796.59198 9.2197031e-39
2984.5701 -3370.5 799.98102 9.2197031e-39
2991.0601 -3329.9399 801.71899 9.2197031e-39
2988.3301 -3281.5901 800.98798 9.2197031e-39
3105.47 -3340.01 832.375 9.2197031e-39
3105.4199 -700 832.362 9.2197031e-39
3195.1299 -727.78528 856.401 9.2197031e-39
3198.03 -672.18848 857.177 9.2197031e-39
3186.0901 -644.58862 853.97699 9.2197031e-39
3282.0601 -614.27051 879.69397 9.2197031e-39
3467.23 -1094.853 929.31 9.2197031e-39
3461.8401 -1033.16 927.86499 9.2197031e-39
3469.3301 -1003.389 929.87299 9.2197031e-39
3454.4299 -971.70398 925.87903 9.2197031e-39
3474.28 -1065.0129 931.19702 9.2197031e-39
3523.0801 -946.38 944.27399 9.2197031e-39
3568.6101 -3696.03 956.474 9.2197031e-39
3577.22 -355.33899 958.78101 9.2197031e-39
3580.96 1086.58 959.78302 9.2197031e-39
3572.6499 1121.41 957.55701 9.2197031e-39
3564.8799 1156.6899 955.474 9.2197031e-39
3595.4099 -920.08002 963.65399 9.2197031e-39
3616.22 949.65002 969.23199 9.2197031e-39
3602.1899 981.18005 965.46997 9.2197031e-39
3594.8601 1016.02 963.50702 9.2197031e-39
3588.9399 1051.73 961.922 9.2197031e-39
3644.72 811.59998 976.867 9.2197031e-39
3638.95 846.51001 975.323 9.2197031e-39
3625.78 878.25 971.79401 9.2197031e-39
3621.1699 913.93005 970.55798 9.2197031e-39
3636.0901 1235.63 974.55499 9.2197031e-39
3708.0601 -894.69 993.83899 9.2197031e-39
3723.6299 584.68994 998.01001 9.2197031e-39
3697.1799 611.53003 990.92401 9.2197031e-39
3723.2 657.81995 997.89697 9.2197031e-39
3719.76 693.47998 996.97498 9.2197031e-39
3759.05 560.65002 1007.5 9.2197031e-39
3746.8799 817.16003 1004.24 9.2197031e-39
3801.6899 538.54004 1018.93 9.2197031e-39
3784.53 756.41003 1014.33 9.2197031e-39
3820.1001 -297.35599 1023.86 9.2197031e-39
3841.52 -260.99799 1029.6 9.2197031e-39
3825.22 -228.97501 1025.23 9.2197031e-39
3839.6299 514.25 1029.09 9.2197031e-39
3886.6699 492.29004 1041.7 9.2197031e-39
3946.77 1496.1899 1057.8 9.2197031e-39
3974.47 1466.78 1065.22 9.2197031e-39
3992.6899 -3205.46 1070.11 9.2197031e-39
3998.01 -3160.45 1071.53 9.2197031e-39
4026.8799 -3130.46 1079.27 9.2197031e-39
4068.03 -3107.76 1090.29 9.2197031e-39
4092.3601 -3074.5 1096.8101 9.2197031e-39
4160.98 -3067.0801 1115.2 9.2197031e-39
4165.1802 1669.54 1116.33 9.2197031e-39
4147.77 1805.6599 1111.66 9.2197031e-39
4256.8101 -3074.1101 1140.88 9.2197031e-39
4308.5698 -3967.8601 1154.74 9.2197031e-39
4324.98 2073.54 1159.14 9.2197031e-39
4369.3398 -3955.47 1171.03 9.2197031e-39
4432.5698 -3943.99 1187.97 9.2197031e-39
4409.6401 2075.1899 1181.83 9.2197031e-39
4446.3901 -4137.0703 1191.67 9.2197031e-39
4504.5698 -3938 1207.26 9.2197031e-39
4494.8301 -3159.28 1204.65 9.2197031e-39
4488.8701 2071.8501 1203.0601 9.2197031e-39
4550.7402 -4481.4902 1219.63 9.2197031e-39
4558.6001 -3917.76 1221.74 9.2197031e-39
4631.2402 -4482.2197 1241.2 9.2197031e-39
4704.5298 -4475.5498 1260.84 9.2197031e-39
4706.3799 2097.04 1261.34 9.2197031e-39
4745.6802 2065 1271.87 9.2197031e-39
4790.98 -4478.3101 1284.01 9.2197031e-39
5406.27 -4461.5 1448.87 9.2197031e-39
5498.6401 -4456.1001 1473.62 9.2197031e-39
5514.79 -4396.8701 1477.95 9.2197031e-39
5512.5298 -4325.6602 1477.35 9.2197031e-39
5511.9302 -4256.3896 1477.1899 9.2197031e-39
5559.0898 -3385.96 1489.8199 9.2197031e-39
5557.0098 -3324.8799 1489.26 9.2197031e-39
5578.0601 -3704.6201 1494.9 9.2197031e-39
5572.3301 -3638.5701 1493.37 9.2197031e-39
5571.9302 -3576.03 1493.26 9.2197031e-39
5570.8999 -3513.72 1492.99 9.2197031e-39
5561.4199 -3447.71 1490.45 9.2197031e-39
5563.1099 -3268.2 1490.9 9.2197031e-39
5596.8999 -3224.6101 1499.95 9.2197031e-39
5769.96 1604.1899 1546.3199 9.2197031e-39
6733.3901 -819.51398 1804.47 9.2197031e-39
6896.9199 1311.88 1848.29 9.2197031e-39
6925.25 -884.495 1855.88 9.2197031e-39
6909.3398 1382.1201 1851.62 9.2197031e-39
7127.02 -3557.6101 1909.95 9.2197031e-39
7126.0698 -3340.05 1909.6899 9.2197031e-39
7126.5801 -3197.76 1909.83 9.2197031e-39
7115.0698 -1016.197 1906.75 9.2197031e-39
7123.2598 -953.19598 1908.9399 9.2197031e-39
7127.1299 -446.66498 1909.97 9.2197031e-39
7115.0698 -383.80301 1906.75 9.2197031e-39
7138.0298 -3859.29 1912.9 9.2197031e-39
7131.4902 -3781.3101 1911.15 9.2197031e-39
7134.8901 -3708.27 1912.0601 9.2197031e-39
7136.7002 -3635.04 1912.54 9.2197031e-39
7127.3901 -3484.8799 1910.05 9.2197031e-39
7128.8799 -3413.0601 1910.45 9.2197031e-39
7132.5801 -3270.98 1911.4399 9.2197031e-39
7149.0601 -1852.61 1915.85 9.2197031e-39
7144.1802 -1786.84 1914.54 9.2197031e-39
7149.25 -1722.78 1915.9 9.2197031e-39
7152.8101 -1658.584 1916.86 9.2197031e-39
7148.1602 -1593.4241 1915.61 9.2197031e-39
7347.0601 -3203.53 1968.91 9.2197031e-39
7537.8398 -3195.3101 2020.03 9.2197031e-39
7567.4302 -295.914 2027.95 9.2197031e-39
7573.3799 -228.034 2029.55 9.2197031e-39
7571.0298 -92.883972 2028.92 9.2197031e-39
7577.7998 -160.08502 2030.73 9.2197031e-39
7710.5898 -3177.8201 2066.3101 9.2197031e-39
7709.9399 -3102.4199 2066.1399 9.2197031e-39
8042.9399 -3129.75 2155.3701 9.2197031e-39
8425.2402 -3165.5801 2257.8 9.2197031e-39
