# .PCD v0.7 - Point Cloud Data file format
VERSION 0.7
FIELDS x y z rgb
SIZE 4 4 4 4
TYPE F F F F
COUNT 1 1 1 1
WIDTH 315
HEIGHT 1
VIEWPOINT 0 0 0 1 0 0 0
POINTS 315
DATA ascii
252 -1212 134 9.2197031e-39
262.33401 -1212.907 136.769 9.2197031e-39
257.06601 -1200.9771 135.35699 9.2197031e-39
267.34799 -1206.792 138.11301 9.2197031e-39
272.564 -1209.6279 139.50999 9.2197031e-39
273.66 -782.62799 139.804 9.2197031e-39
273.05499 -765.57098 139.642 9.2197031e-39
270.78601 -452.27499 139.034 9.2197031e-39
274.27301 -445.71399 139.968 9.2197031e-39
272.68451 -437.41052 139.54199 9.2197031e-39
252.00101 1306 134 9.2197031e-39
268.06699 1305.9301 138.30499 9.2197031e-39
277.32199 -1200.428 140.785 9.2197031e-39
284.49451 -1192.5405 142.707 9.2197031e-39
291.552 -1185.5701 144.59801 9.2197031e-39
297.504 -1167.041 146.1925 9.2197031e-39
299.216 -1107.652 146.651 9.2197031e-39
289.358 -967.97302 144.00999 9.2197031e-39
290.81799 -952.71802 144.401 9.2197031e-39
282.20251 -803.10498 142.0925 9.2197031e-39
284.061 -793.16699 142.591 9.2197031e-39
277.67599 -789.14099 140.88 9.2197031e-39
282.448 -766.03247 142.15849 9.2197031e-39
303.742 -764.84399 147.86433 9.2197031e-39
285.12997 -754.62952 142.877 9.2197031e-39
294.69635 -756.70026 145.44032 9.2197031e-39
302.31601 -751.28302 147.48199 9.2197031e-39
287.28601 -746.51501 143.455 9.2197031e-39
303.30765 -745.96466 147.74767 9.2197031e-39
310.73535 -466.53638 149.73799 9.2197031e-39
276.23199 -450.08502 140.493 9.2197031e-39
287.28601 -453.48499 143.455 9.2197031e-39
294.61667 -451.09302 145.41933 9.2197031e-39
311.70001 -457.85602 149.99699 9.2197031e-39
276.63397 -447.62549 140.60049 9.2197031e-39
286.39465 -445.72665 143.21599 9.2197031e-39
294.04102 -445.80072 145.26476 9.2197031e-39
305.32126 -445.09351 148.28751 9.2197031e-39
310.61801 -449.79602 149.707 9.2197031e-39
283.746 -433.55701 142.50633 9.2197031e-39
304.93549 -438.5495 148.18399 9.2197031e-39
311.53601 -435.146 149.953 9.2197031e-39
286.664 -423.61401 143.28799 9.2197031e-39
300.26999 1308.35 146.93401 9.2197031e-39
284.216 1310.71 142.632 9.2197031e-39
314.37601 -464.612 150.714 9.2197031e-39
312.38699 -452.71899 150.181 9.2197031e-39
312.62201 -448.48401 150.244 9.2197031e-39
311.88501 -438.491 150.04601 9.2197031e-39
316.62399 1315.83 151.31599 9.2197031e-39
332.76999 1315.1801 155.642 9.2197031e-39
365.397 1319.41 164.38499 9.2197031e-39
382.31299 1329.29 168.91701 9.2197031e-39
349.71899 1330.35 160.18401 9.2197031e-39
414.98499 1328.63 177.672 9.2197031e-39
398.72198 1330.03 173.314 9.2197031e-39
431.884 1334.05 182.2 9.2197031e-39
448.987 1340.3101 186.783 9.2197031e-39
1316.66 1065.27 419.27499 9.2197031e-39
1331.2 1056.42 423.17001 9.2197031e-39
1354.42 1060.61 429.392 9.2197031e-39
1424.99 1071.4301 448.30099 9.2197031e-39
1428.77 1691.25 449.314 9.2197031e-39
1412.33 1757.6001 444.909 9.2197031e-39
1426.61 1893.25 448.73499 9.2197031e-39
1447.11 594.81006 454.228 9.2197031e-39
1463.4399 590.16003 458.604 9.2197031e-39
1443.1899 611.87 453.17801 9.2197031e-39
1434.3 624 450.79501 9.2197031e-39
1431.5601 1050.3199 450.06201 9.2197031e-39
1466.9399 1163.37 459.543 9.2197031e-39
1458.1801 1699.8601 457.194 9.2197031e-39
1445.98 1774.53 453.927 9.2197031e-39
1438.96 1864.6499 452.04401 9.2197031e-39
1496.97 500.81006 467.58899 9.2197031e-39
1487.64 512.02002 465.09 9.2197031e-39
1489.8 533.73999 465.66699 9.2197031e-39
1495.99 559.59998 467.32501 9.2197031e-39
1480.47 565.39001 463.16699 9.2197031e-39
1473.42 579.17004 461.27899 9.2197031e-39
1505.61 1741.3601 469.905 9.2197031e-39
1528.75 489.59998 476.10501 9.2197031e-39
1518.04 499.81006 473.23499 9.2197031e-39
1510.95 1068.22 471.33301 9.2197031e-39
1527.62 1641.96 475.79999 9.2197031e-39
1507.23 1696.8701 470.33701 9.2197031e-39
1540.55 1710.5601 479.26501 9.2197031e-39
1568.09 483.80005 486.646 9.2197031e-39
1554.4 491.87 482.978 9.2197031e-39
1544.95 1052.99 480.44601 9.2197031e-39
1567.99 1175.52 486.617 9.2197031e-39
1547.46 1632.0601 481.11801 9.2197031e-39
1572.28 1630.51 487.76901 9.2197031e-39
1608.13 1603.78 497.37299 9.2197031e-39
1654.1801 -3860.4399 509.71301 9.2197031e-39
1652.1899 -3708.6399 509.17899 9.2197031e-39
1648.0601 -3563.3201 508.07401 9.2197031e-39
1644.64 867.16003 507.15799 9.2197031e-39
1641.71 1055.08 506.37299 9.2197031e-39
1625.2 1064.53 501.948 9.2197031e-39
1628.91 1681.25 502.94199 9.2197031e-39
1683.36 -4460.3501 517.53198 9.2197031e-39
1658.85 -4297.48 510.96399 9.2197031e-39
1664.27 -4218.7998 512.41699 9.2197031e-39
1664.41 -4130.1396 512.45398 9.2197031e-39
1659.01 -4031.6399 511.008 9.2197031e-39
1655.92 -3942.6799 510.17801 9.2197031e-39
1655.97 -3789.4099 510.194 9.2197031e-39
1669.54 -3543.4399 513.82898 9.2197031e-39
1679.9301 1070.92 516.61401 9.2197031e-39
1667.55 1492.9299 513.29602 9.2197031e-39
1714.9301 -3775.29 525.99103 9.2197031e-39
1701.3101 -3544.78 522.34198 9.2197031e-39
1734.11 -3547.54 531.13 9.2197031e-39
1763.89 -3543.75 539.10797 9.2197031e-39
1790.02 -3532.6101 546.112 9.2197031e-39
1831.08 -3549.22 557.112 9.2197031e-39
1855.87 -3534.8401 563.75702 9.2197031e-39
1890.21 -3537.5601 572.95697 9.2197031e-39
1923.73 -3538.1499 581.94 9.2197031e-39
1952.91 -3530.6499 589.75897 9.2197031e-39
1991.6801 -3539.05 600.14697 9.2197031e-39
2023.05 -3534.25 608.54999 9.2197031e-39
2054.98 -3529.9399 617.10602 9.2197031e-39
2094.8601 -3537.8601 627.79303 9.2197031e-39
2123.8201 -3527.77 635.55298 9.2197031e-39
2159.23 -3527.3301 645.04102 9.2197031e-39
2163.45 -444.259 646.172 9.2197031e-39
2147.6299 -428.30298 641.93298 9.2197031e-39
2153.8101 -410.41699 643.58698 9.2197031e-39
2142.53 -394.28799 640.565 9.2197031e-39
2147.4399 -376.42401 641.88202 9.2197031e-39
2156.03 -357.96802 644.18298 9.2197031e-39
2199.1499 -3533.0601 655.73798 9.2197031e-39
2196.49 -459.23102 655.02399 9.2197031e-39
2231.5601 -3526.8301 664.42102 9.2197031e-39
2246.77 -473.69101 668.49799 9.2197031e-39
2272.98 -3533.26 675.52002 9.2197031e-39
2315.23 -3539.97 686.841 9.2197031e-39
2326.76 -506.21838 689.93103 9.2197031e-39
2293.1001 -489.25702 680.90997 9.2197031e-39
2350.8501 -3536.49 696.38501 9.2197031e-39
2350.6399 -524.12848 696.33002 9.2197031e-39
2390.05 -3537.3799 706.89001 9.2197031e-39
2400.8601 -561.1684 709.784 9.2197031e-39
2379.21 -542.33221 703.98297 9.2197031e-39
2425.3301 -600 716.34302 9.2197031e-39
2409.8 -580.50488 712.17999 9.2197031e-39
2454.72 -3571.8999 724.216 9.2197031e-39
2451.3301 -619.8703 723.30798 9.2197031e-39
2522.5 -3608.6201 742.37903 9.2197031e-39
2537.1699 1215.33 746.30902 9.2197031e-39
2536.24 1247.6 746.06 9.2197031e-39
2641.5801 -3710.0801 774.28601 9.2197031e-39
2661.3701 1245.73 779.59003 9.2197031e-39
2631.0701 1256 771.46899 9.2197031e-39
2679.1899 1225.66 784.362 9.2197031e-39
2739.9299 337.47699 800.63898 9.2197031e-39
2753.46 1247.22 804.26398 9.2197031e-39
2801.4399 -3859.3501 817.11902 9.2197031e-39
2806.9099 1252.08 818.58698 9.2197031e-39
2847.8601 -3860.1101 829.55798 9.2197031e-39
2885.8 -3849.5601 839.72302 9.2197031e-39
2862.23 1257.25 833.409 9.2197031e-39
2926.26 -3841.6101 850.56598 9.2197031e-39
2940.77 385.73102 854.45398 9.2197031e-39
2935.4399 1273.85 853.026 9.2197031e-39
2966.79 -3833.1699 861.42603 9.2197031e-39
2998.4199 -3813.77 869.901 9.2197031e-39
2998.6599 1282.1 869.96503 9.2197031e-39
3019.8301 -3567.28 875.63702 9.2197031e-39
3042.21 -3808.1599 881.63397 9.2197031e-39
3051.5 -3549.29 884.125 9.2197031e-39
3071.9299 -1088.541 889.59698 9.2197031e-39
3063.8401 1290.4399 887.42902 9.2197031e-39
3091.99 -3808.6299 894.97198 9.2197031e-39
3107.6899 -3505.27 899.17902 9.2197031e-39
3108.4399 -3455.74 899.38098 9.2197031e-39
3105.78 -3403.6699 898.66803 9.2197031e-39
3095.3999 -3345.04 895.88501 9.2197031e-39
3094.21 -3296.28 895.56799 9.2197031e-39
3105.3501 -3259.79 898.552 9.2197031e-39
3088.3401 -1065.08 893.995 9.2197031e-39
3115.6299 -3779.1899 901.30701 9.2197031e-39
3111.0701 -3719.1101 900.08502 9.2197031e-39
3117.24 -3566.3101 901.73798 9.2197031e-39
3111.74 -3219.3401 900.26501 9.2197031e-39
3117.6699 -3178.97 901.85498 9.2197031e-39
3257.5 -654.31189 939.32202 9.2197031e-39
3311.97 -682.95471 953.91602 9.2197031e-39
3339.0901 -3329.6299 961.18201 9.2197031e-39
3368.21 -60.129028 968.98602 9.2197031e-39
3356.8799 -33.213013 965.95099 9.2197031e-39
3516.3 26.343018 1008.66 9.2197031e-39
3589.29 -932.67999 1028.22 9.2197031e-39
3584.27 -901.82001 1026.88 9.2197031e-39
3574.1699 -870.68396 1024.17 9.2197031e-39
3573.4399 -840.45001 1023.98 9.2197031e-39
3595.97 -963.86304 1030.01 9.2197031e-39
3664.3 1278.36 1048.3199 9.2197031e-39
3699.3899 -3594.75 1057.73 9.2197031e-39
3699.71 -818.31 1057.8101 9.2197031e-39
3703.5801 1104.39 1058.85 9.2197031e-39
3696.8899 1139.46 1057.0601 9.2197031e-39
3689.8799 1174.53 1055.1801 9.2197031e-39
3680.8101 1208.7 1052.75 9.2197031e-39
3672.29 1243.3 1050.46 9.2197031e-39
3720.4199 -1009.116 1063.36 9.2197031e-39
3744.76 972.27002 1069.88 9.2197031e-39
3738.4299 1007.02 1068.1899 9.2197031e-39
3724.75 1038.45 1064.52 9.2197031e-39
3717.8101 1073.15 1062.66 9.2197031e-39
3777.6201 -791.28796 1078.6899 9.2197031e-39
3774.27 -759.211 1077.79 9.2197031e-39
3752.54 938.31006 1071.97 9.2197031e-39
3814.02 778.77002 1088.4399 9.2197031e-39
3819.8101 1405.5 1089.99 9.2197031e-39
3890.5601 269.65997 1108.95 9.2197031e-39
3892.48 304.83398 1109.46 9.2197031e-39
3882.8401 337.20502 1106.88 9.2197031e-39
3876.6799 370.47302 1105.23 9.2197031e-39
3886.0801 408.09998 1107.75 9.2197031e-39
3859.54 685.98999 1100.64 9.2197031e-39
3886.1299 844.21997 1107.76 9.2197031e-39
3929.99 140.14801 1119.51 9.2197031e-39
3904.6699 203.78601 1112.73 9.2197031e-39
3901.52 237.62097 1111.89 9.2197031e-39
3904.4399 448.64001 1112.67 9.2197031e-39
3907.53 485.18005 1113.5 9.2197031e-39
3904.1299 665.08997 1112.59 9.2197031e-39
3925.05 897.89001 1118.1899 9.2197031e-39
3934.21 -98.127014 1120.65 9.2197031e-39
3934.6201 -64.184021 1120.76 9.2197031e-39
3934.97 175.73999 1120.85 9.2197031e-39
3942.22 641.31995 1122.79 9.2197031e-39
3992.04 -1529.579 1136.14 9.2197031e-39
3984.6799 -1492.156 1134.17 9.2197031e-39
3975.0801 -1454.5029 1131.6 9.2197031e-39
3991.23 620.56006 1135.92 9.2197031e-39
3982.23 999.62 1133.51 9.2197031e-39
4007.5 -1569.381 1140.28 9.2197031e-39
4027.49 -1430.8149 1145.64 9.2197031e-39
4074.8 1593.76 1158.3199 9.2197031e-39
4057.8501 1629.2 1153.77 9.2197031e-39
4099.2402 -1630.0601 1164.87 9.2197031e-39
4089.25 -1408.2371 1162.1899 9.2197031e-39
4247.23 1071.12 1204.52 9.2197031e-39
4266.9902 1947.1799 1209.8101 9.2197031e-39
4275.1899 633.76001 1212.01 9.2197031e-39
4272.0298 672.40002 1211.16 9.2197031e-39
4351.6602 -1737.25 1232.5 9.2197031e-39
4401.6299 -3896.4399 1245.89 9.2197031e-39
4448.54 -3873.8701 1258.46 9.2197031e-39
4515.5801 -3866.1699 1276.42 9.2197031e-39
4501.23 2202.55 1272.58 9.2197031e-39
4561.4302 -1266.7681 1288.71 9.2197031e-39
4564.3501 -1187.759 1289.49 9.2197031e-39
4569.5098 -3847.51 1290.87 9.2197031e-39
4568.7998 -1228.088 1290.6801 9.2197031e-39
4571.0601 -1149.021 1291.29 9.2197031e-39
4579.5801 2199.5601 1293.5699 9.2197031e-39
4637.6201 -3838.5801 1309.12 9.2197031e-39
4673.3101 -4373.21 1318.6899 9.2197031e-39
4697.1899 -3822.3501 1325.08 9.2197031e-39
4752.9902 -4373.3999 1340.04 9.2197031e-39
4784.25 2219.3201 1348.41 9.2197031e-39
4826.2002 -4366.8301 1359.65 9.2197031e-39
4824.3999 2133 1359.17 9.2197031e-39
4898.1201 -4358 1378.92 9.2197031e-39
4876.9199 2220.3899 1373.24 9.2197031e-39
5530.5698 -4355.8398 1548.39 9.2197031e-39
5608.9902 -3674.1799 1569.4 9.2197031e-39
5603.29 -3608.01 1567.87 9.2197031e-39
5622.0898 -4349.9502 1572.91 9.2197031e-39
5642.2202 -4293.5601 1578.3 9.2197031e-39
5633.4502 -4218.04 1575.96 9.2197031e-39
5635.23 -4150.4697 1576.4301 9.2197031e-39
5635.46 -4082.6299 1576.49 9.2197031e-39
5627.5498 -4010.3501 1574.37 9.2197031e-39
5630.4302 -3945.6899 1575.15 9.2197031e-39
5620.9702 -3874.1299 1572.61 9.2197031e-39
5612.3999 -3804 1570.3101 9.2197031e-39
5616.5 -3742.1499 1571.41 9.2197031e-39
5685.0098 -3404.3501 1589.77 9.2197031e-39
5683.2598 -3342.45 1589.3 9.2197031e-39
5681.7598 -3281.22 1588.9 9.2197031e-39
5684.8198 -3163.22 1589.72 9.2197031e-39
5693.2598 -3595.23 1591.98 9.2197031e-39
5694.3101 -3533.03 1592.26 9.2197031e-39
5686.1201 -3466.5 1590.0699 9.2197031e-39
5687.52 -3224.04 1590.4399 9.2197031e-39
5697.3999 -3109.97 1593.09 9.2197031e-39
7239.1099 -852.60199 2006.1899 9.2197031e-39
7269.3999 -3758.8899 2014.3101 9.2197031e-39
7265.5298 -3682.0901 2013.27 9.2197031e-39
7267.1499 -3608.27 2013.7 9.2197031e-39
7260.8901 -3531.6699 2012.03 9.2197031e-39
7262.8701 -3459.0801 2012.5601 9.2197031e-39
7260.5498 -3385.23 2011.9399 9.2197031e-39
7261.1401 -3313.0601 2012.09 9.2197031e-39
7260.1499 -3240.74 2011.83 9.2197031e-39
7259.3799 -3168.98 2011.62 9.2197031e-39
7253.3599 -3095.8 2010.01 9.2197031e-39
7431.6899 -3087.03 2057.79 9.2197031e-39
7621.4102 -3078.9299 2108.6299 9.2197031e-39
7698.6899 552.17004 2129.3301 9.2197031e-39
7697.2798 620.81006 2128.96 9.2197031e-39
7762.7598 -2977.27 2146.5 9.2197031e-39
7804.7402 -2916.1399 2157.75 9.2197031e-39
7798.5601 -2118.6499 2156.0901 9.2197031e-39
7793.98 -2047.13 2154.8701 9.2197031e-39
7794.4702 -1976.86 2155 9.2197031e-39
7814.29 -3068.49 2160.3101 9.2197031e-39
7833.2598 -2850.5801 2165.3899 9.2197031e-39
7826.8101 -2774.79 2163.6599 9.2197031e-39
