# .PCD v0.7 - Point Cloud Data file format
VERSION 0.7
FIELDS x y z rgb
SIZE 4 4 4 4
TYPE F F F F
COUNT 1 1 1 1
WIDTH 303
HEIGHT 1
VIEWPOINT 0 0 0 1 0 0 0
POINTS 303
DATA ascii
119.741 -7701 32.352402 9.2197031e-39
129.883 -871.67902 35.070099 9.2197031e-39
144.6445 -867.526 39.025398 9.2197031e-39
129.98199 -851.63 35.0966 9.2197031e-39
143.84401 -854.64935 38.810833 9.2197031e-39
134.95734 -845.12372 36.4296 9.2197031e-39
145.44099 -843.55499 39.238602 9.2197031e-39
133.37051 -837.00598 36.004425 9.2197031e-39
145.35925 -827.51501 39.216751 9.2197031e-39
147.76067 -584.94037 39.860268 9.2197031e-39
146.901 -578.20398 39.6301 9.2197031e-39
119.741 1174 32.352402 9.2197031e-39
135.537 1173.9301 36.584999 9.2197031e-39
178.745 -7699.73 48.162498 9.2197031e-39
173.683 -866.90503 46.806301 9.2197031e-39
168.60899 -854.23798 45.446598 9.2197031e-39
155.991 -840.05902 42.065498 9.2197031e-39
163.23199 -847.271 44.005798 9.2197031e-39
156.207 -837.90723 42.123436 9.2197031e-39
167.23 -836.94049 45.077049 9.2197031e-39
148.95999 -828.48547 40.181599 9.2197031e-39
149.004 -582.854 40.193501 9.2197031e-39
152.22949 -582.73303 41.057701 9.2197031e-39
154.73749 -577.76099 41.729752 9.2197031e-39
149.42799 -561.36597 40.306999 9.2197031e-39
161.94466 -565.59363 43.660831 9.2197031e-39
151.47099 -545.453 40.854599 9.2197031e-39
154.21201 -524.59302 41.588799 9.2197031e-39
179.491 -520.35101 48.3624 9.2197031e-39
158.077 -495.82202 42.624401 9.2197031e-39
182.758 -347.995 49.237801 9.2197031e-39
176.37399 -295.733 47.527252 9.2197031e-39
185.58299 -292.664 49.994701 9.2197031e-39
182.60001 -289.12201 49.195499 9.2197031e-39
174.459 -269.71301 47.014 9.2197031e-39
174.12601 -241.444 46.924801 9.2197031e-39
176.903 -23.583984 47.668999 9.2197031e-39
160.252 -14.281006 43.207298 9.2197031e-39
173.85201 11.799011 46.851398 9.2197031e-39
172.02699 74.109985 46.362499 9.2197031e-39
151.39999 1177.71 40.8353 9.2197031e-39
183.116 1178.85 49.333801 9.2197031e-39
167.35201 1182.35 45.109901 9.2197031e-39
192.61099 -486.96301 51.8778 9.2197031e-39
198.698 -475.41299 53.508999 9.2197031e-39
208.369 -454.59198 56.100101 9.2197031e-39
219.088 -432.06201 58.972301 9.2197031e-39
186.498 -308.047 50.239899 9.2197031e-39
189.17599 46.546997 50.957401 9.2197031e-39
202.953 56.107971 54.648998 9.2197031e-39
202.13 111.53003 54.428398 9.2197031e-39
199.077 1181.21 53.6105 9.2197031e-39
214.931 1180.42 57.858601 9.2197031e-39
238.03101 -7715.9302 64.048302 9.2197031e-39
227.715 -416.22299 61.283901 9.2197031e-39
246.74699 -374.55801 66.383698 9.2197031e-39
256.13901 -359.08801 68.9002 9.2197031e-39
269.198 -335.48001 72.3993 9.2197031e-39
278.81299 -321.254 74.975502 9.2197031e-39
288.285 -308.08899 77.513702 9.2197031e-39
302.42499 -7922.52 81.302399 9.2197031e-39
297.991 -295.06699 80.114403 9.2197031e-39
311.19501 -274.94199 83.652298 9.2197031e-39
321.84 -261.34399 86.504601 9.2197031e-39
327.647 -258.69199 88.0606 9.2197031e-39
363.534 -7927.5898 97.676498 9.2197031e-39
339.548 -243.58301 91.249397 9.2197031e-39
346.45599 -239.35001 93.100601 9.2197031e-39
355.68301 -230.771 95.5728 9.2197031e-39
367.935 -236.452 98.855698 9.2197031e-39
364.8045 -227.8535 98.016907 9.2197031e-39
390.76199 -242.13199 104.972 9.2197031e-39
377.12701 -233.78149 101.3185 9.2197031e-39
383.00201 -237.30499 102.893 9.2197031e-39
395.54999 -234.05251 106.255 9.2197031e-39
404.14801 -237.82101 108.559 9.2197031e-39
424.44699 -7925.1201 113.998 9.2197031e-39
414.20151 -235.02901 111.253 9.2197031e-39
427.16101 -232.5695 114.72549 9.2197031e-39
433.323 -236.35999 116.376 9.2197031e-39
442.828 -231.069 118.923 9.2197031e-39
447.33701 -233.19699 120.131 9.2197031e-39
455.522 -234.4785 122.32449 9.2197031e-39
471.96399 -224.78101 126.73 9.2197031e-39
1384.28 945.81995 371.185 9.2197031e-39
1518.91 -3878.49 407.258 9.2197031e-39
1527.28 782.84998 409.50101 9.2197031e-39
1525.27 944.70996 408.96301 9.2197031e-39
1550.75 -4559.4199 415.79099 9.2197031e-39
1550.3101 -4459.8203 415.67099 9.2197031e-39
1554.8101 -4377.21 416.87701 9.2197031e-39
1539.54 -4248.6201 412.78699 9.2197031e-39
1541.09 -4166.6201 413.203 9.2197031e-39
1544.0699 -4091.29 414 9.2197031e-39
1538.42 -3998.8101 412.487 9.2197031e-39
1535.85 -3843.98 411.797 9.2197031e-39
1535.6801 -3773.3 411.75299 9.2197031e-39
1541.59 -3652.3899 413.336 9.2197031e-39
1551.17 657.93994 415.90302 9.2197031e-39
1549.5601 680.35999 415.47198 9.2197031e-39
1552.02 782.80005 416.13 9.2197031e-39
1551.36 946.06995 415.95401 9.2197031e-39
1569.9301 -3646.5601 420.92899 9.2197031e-39
1602.29 -3648.4199 429.60101 9.2197031e-39
1575.01 729.70996 422.29001 9.2197031e-39
1597.34 940.43005 428.27399 9.2197031e-39
1608.11 -3859.26 431.16 9.2197031e-39
1635.25 -3650.8101 438.43301 9.2197031e-39
1613.64 668.31006 432.64001 9.2197031e-39
1631.0601 948.78003 437.30801 9.2197031e-39
1660.0699 -3637.01 445.082 9.2197031e-39
1642.21 553.73999 440.29599 9.2197031e-39
1690.85 -3634.3501 453.33099 9.2197031e-39
1703.47 535.53003 456.71201 9.2197031e-39
1688.4 546.13 452.673 9.2197031e-39
1679.36 561.48999 450.25 9.2197031e-39
1714.74 786.81006 459.73199 9.2197031e-39
1728.85 -3644.4099 463.51099 9.2197031e-39
1740.29 -3096.02 466.57599 9.2197031e-39
1746.4 -3060.9399 468.21301 9.2197031e-39
1752.61 -3026.73 469.87799 9.2197031e-39
1746.88 -2976.52 468.34299 9.2197031e-39
1727.03 531.28003 463.02301 9.2197031e-39
1716.41 638.56006 460.177 9.2197031e-39
1737.39 945.72998 465.79999 9.2197031e-39
1756.99 -3635.8301 471.05099 9.2197031e-39
1785.13 -3208.6399 478.59299 9.2197031e-39
1773.5601 -2972.1201 475.49301 9.2197031e-39
1773.29 543.75 475.41901 9.2197031e-39
1767.87 947.72998 473.96799 9.2197031e-39
1792.9399 -3640.74 480.686 9.2197031e-39
1827.62 -3642.6599 489.97699 9.2197031e-39
1796.77 -2962.6399 481.711 9.2197031e-39
1820.54 -2953.71 488.07901 9.2197031e-39
1799.4399 540.38 482.42599 9.2197031e-39
1856.9 -3634.79 497.823 9.2197031e-39
1830.45 -2926.52 490.73499 9.2197031e-39
1860.09 -2924.97 498.67801 9.2197031e-39
1838.3101 545.81006 492.84299 9.2197031e-39
1895.9 -3642.73 508.27399 9.2197031e-39
1875.8199 549.48999 502.89099 9.2197031e-39
1935.6899 -3651.03 518.935 9.2197031e-39
1912.5699 -2951.6001 512.73999 9.2197031e-39
1927.12 562.09998 516.638 9.2197031e-39
1969.97 -3649.6001 528.11902 9.2197031e-39
1963.15 -2974.3899 526.29199 9.2197031e-39
1951.51 -2920.3899 523.17401 9.2197031e-39
1970.79 -2904.51 528.34003 9.2197031e-39
2004.36 -3647.79 537.33301 9.2197031e-39
1984.8199 -2882.46 532.099 9.2197031e-39
1985.7 -2845.46 532.33398 9.2197031e-39
1983.48 -2805.6599 531.73999 9.2197031e-39
1998.52 -2785.8201 535.771 9.2197031e-39
2008.0601 -2760.0601 538.32501 9.2197031e-39
1994.01 928.18005 534.56201 9.2197031e-39
2041.01 -3648.8899 547.15601 9.2197031e-39
2023.34 -2740.77 542.41901 9.2197031e-39
2043.17 -2726.3398 547.73401 9.2197031e-39
2051.53 -329.33301 549.97498 9.2197031e-39
2040.75 -313.42099 547.08502 9.2197031e-39
2037.23 589.16003 546.14203 9.2197031e-39
2019.04 601.46997 541.26898 9.2197031e-39
2085.45 -2735.05 559.06299 9.2197031e-39
2085.1201 -359.50699 558.97302 9.2197031e-39
2068.8501 -344.19501 554.61603 9.2197031e-39
2058.24 -291.694 551.77197 9.2197031e-39
2063.23 -272.32599 553.10901 9.2197031e-39
2075.5801 -251.104 556.41901 9.2197031e-39
2081.1399 -231.202 557.90698 9.2197031e-39
2073.26 967.16003 555.79498 9.2197031e-39
2114.6299 -372.896 566.88 9.2197031e-39
2092.1399 -209.76501 560.85498 9.2197031e-39
2105.74 -187.36798 564.49902 9.2197031e-39
2117.24 -165.18799 567.58002 9.2197031e-39
2134.22 -2749.46 572.13098 9.2197031e-39
2141.1899 -387.23499 573.99799 9.2197031e-39
2127.5801 -143.021 570.35199 9.2197031e-39
2196.5801 -2776.3301 588.841 9.2197031e-39
2168.6201 -401.89099 581.34698 9.2197031e-39
2209.3601 -415.19199 592.26398 9.2197031e-39
2262.4299 -84.817017 606.48499 9.2197031e-39
2983.6201 -3464.8201 799.72699 9.2197031e-39
2975.48 -3409.1201 797.54602 9.2197031e-39
2984.5701 -3370.5 799.98102 9.2197031e-39
2986.1299 -3516.0601 800.39899 9.2197031e-39
2994.6699 -3333.25 802.68799 9.2197031e-39
2998.54 -3290.78 803.72302 9.2197031e-39
3091.51 -3327.6699 828.63501 9.2197031e-39
3104.45 -700 832.10303 9.2197031e-39
3165.1899 -727.51477 848.37701 9.2197031e-39
3194.1699 -672.22339 856.14203 9.2197031e-39
3190.9199 -644.50128 855.271 9.2197031e-39
3219.3 -615.97198 862.87701 9.2197031e-39
3460.51 -1094.0601 927.51001 9.2197031e-39
3464.6699 -1063.968 928.62299 9.2197031e-39
3466.6499 -1033.639 929.15302 9.2197031e-39
3460.6699 -1002.605 927.552 9.2197031e-39
3459.25 -972.09601 927.16998 9.2197031e-39
3513.4399 -945.68201 941.69202 9.2197031e-39
3566.3899 -3694.1001 955.87903 9.2197031e-39
3574.3701 1122.3199 958.01801 9.2197031e-39
3566.5901 1157.61 955.93298 9.2197031e-39
3590.5901 -919.77502 962.36298 9.2197031e-39
3585.8701 -354.47601 961.099 9.2197031e-39
3617.1001 950.06006 969.46698 9.2197031e-39
3602.1899 981.18005 965.46997 9.2197031e-39
3597.47 1017.3101 964.20697 9.2197031e-39
3589.8101 1052.17 962.15399 9.2197031e-39
3583.55 1087.91 960.47803 9.2197031e-39
3646.5 812.35999 977.34497 9.2197031e-39
3632.73 843.78003 973.65503 9.2197031e-39
3627.5601 879.05005 972.26801 9.2197031e-39
3622.05 914.33997 970.79401 9.2197031e-39
3630.97 1232.8101 973.18402 9.2197031e-39
3710.95 -894.84698 994.61499 9.2197031e-39
3722.71 584.37 997.76501 9.2197031e-39
3700.8201 612.85999 991.90002 9.2197031e-39
3719.5701 656.44995 996.92401 9.2197031e-39
3727.9099 696.63 999.15698 9.2197031e-39
3759.97 560.96997 1007.75 9.2197031e-39
3749.5701 818.28003 1004.96 9.2197031e-39
3802.6101 538.84998 1019.17 9.2197031e-39
3774.6101 752.46997 1011.67 9.2197031e-39
3817.22 -297.67001 1023.09 9.2197031e-39
3823.29 -263.14899 1024.71 9.2197031e-39
3821.3799 -229.46201 1024.2 9.2197031e-39
3840.55 514.55005 1029.34 9.2197031e-39
3884.8201 491.70996 1041.2 9.2197031e-39
3941.7 1493.28 1056.4399 9.2197031e-39
3990.23 -3203.8701 1069.45 9.2197031e-39
3974.47 1466.78 1065.22 9.2197031e-39
3999.6599 -3161.49 1071.97 9.2197031e-39
4029.3701 -3132.01 1079.9301 9.2197031e-39
4075.52 -3112.3301 1092.3 9.2197031e-39
4102.3901 -3080.5 1099.5 9.2197031e-39
4151.73 -3061.6599 1112.72 9.2197031e-39
4157.6201 1665.1101 1114.3 9.2197031e-39
4145.2798 1804.1201 1110.99 9.2197031e-39
4257.6602 -3074.6001 1141.1 9.2197031e-39
4294.6802 -3957.02 1151.02 9.2197031e-39
4329.8701 2076.76 1160.45 9.2197031e-39
4370.1201 -3956.0601 1171.24 9.2197031e-39
4437.96 -4130.3701 1189.41 9.2197031e-39
4435.6899 -3946.3401 1188.8101 9.2197031e-39
4420.29 2082.0801 1184.6801 9.2197031e-39
4500.6401 -3935.1001 1206.21 9.2197031e-39
4489.73 -3156.4099 1203.29 9.2197031e-39
4488.8701 2071.8501 1203.0601 9.2197031e-39
4549.9902 -4480.8501 1219.4301 9.2197031e-39
4569.6802 -3925.79 1224.71 9.2197031e-39
4630.4902 -4481.5898 1241 9.2197031e-39
4703.0098 -4474.3101 1260.4399 9.2197031e-39
4734.7998 2058.5 1268.95 9.2197031e-39
4703.0498 2095.01 1260.45 9.2197031e-39
4788.7002 -4476.4697 1283.39 9.2197031e-39
5407.0698 -4462.0703 1449.09 9.2197031e-39
5497.04 -4454.98 1473.1899 9.2197031e-39
5515.6001 -4397.4297 1478.17 9.2197031e-39
5509.29 -4323.48 1476.48 9.2197031e-39
5509.4902 -4254.77 1476.53 9.2197031e-39
5559.6802 -3446.8301 1489.98 9.2197031e-39
5557.3501 -3385.1001 1489.35 9.2197031e-39
5556.1401 -3324.46 1489.03 9.2197031e-39
5553.4399 -3263.6299 1488.3101 9.2197031e-39
5568.6802 -3699.45 1492.39 9.2197031e-39
5569.7598 -3637.1799 1492.6801 9.2197031e-39
5560.75 -3570.1299 1490.26 9.2197031e-39
5560.5298 -3508.3701 1490.21 9.2197031e-39
5592.4902 -3222.5801 1498.77 9.2197031e-39
5767.2598 1603.0901 1545.6 9.2197031e-39
6724.7002 -819.35699 1802.15 9.2197031e-39
6888.5601 -883.5 1846.05 9.2197031e-39
6897.8501 1312.15 1848.54 9.2197031e-39
6891.7402 1376.72 1846.9 9.2197031e-39
7125.1602 -3339.71 1909.45 9.2197031e-39
7123.4702 -3267.6399 1909 9.2197031e-39
7113.1401 -1016.11 1906.23 9.2197031e-39
7124.23 -953.23102 1909.2 9.2197031e-39
7114.5801 -447.11798 1906.61 9.2197031e-39
7112.1802 -383.93399 1905.97 9.2197031e-39
7138.9199 -3859.6899 1913.13 9.2197031e-39
7140.3901 -3785.21 1913.53 9.2197031e-39
7135.7798 -3708.6599 1912.29 9.2197031e-39
7130.4302 -3632.4199 1910.86 9.2197031e-39
7136.8999 -3561.6399 1912.59 9.2197031e-39
7127.3901 -3484.8799 1910.05 9.2197031e-39
7127.98 -3412.71 1910.2 9.2197031e-39
7127.5 -3198.0801 1910.0699 9.2197031e-39
7149.0601 -1852.61 1915.85 9.2197031e-39
7148.96 -1787.58 1915.8199 9.2197031e-39
7147.3301 -1722.5 1915.39 9.2197031e-39
7148.98 -1658.062 1915.83 9.2197031e-39
7147.2002 -1593.302 1915.35 9.2197031e-39
7327.8301 -3196.8701 1963.75 9.2197031e-39
7526.8198 -3191.6001 2017.0699 9.2197031e-39
7552.96 -296.69901 2024.08 9.2197031e-39
7560.8501 -228.827 2026.1899 9.2197031e-39
7551.7798 -161.96802 2023.76 9.2197031e-39
7550.8101 -94.531006 2023.5 9.2197031e-39
7709.6699 -3177.52 2066.0701 9.2197031e-39
7705.3301 -3100.96 2064.8999 9.2197031e-39
8038.3101 -3128.3301 2154.1299 9.2197031e-39
8421.5303 -3164.47 2256.8101 9.2197031e-39
