# .PCD v0.7 - Point Cloud Data file format
VERSION 0.7
FIELDS x y z rgb
SIZE 4 4 4 4
TYPE F F F F
COUNT 1 1 1 1
WIDTH 317
HEIGHT 1
VIEWPOINT 0 0 0 1 0 0 0
POINTS 317
DATA ascii
252 -1214 134 9.2197031e-39
257.09201 -1203.9771 135.364 9.2197031e-39
262.233 -1206.908 136.742 9.2197031e-39
272.564 -1209.6279 139.50999 9.2197031e-39
267.146 -1198.7949 138.058 9.2197031e-39
273.686 -770.52899 139.811 9.2197031e-39
271.18799 -761.78503 139.14101 9.2197031e-39
272.32397 -455.02051 139.446 9.2197031e-39
270.77649 -447.233 139.03101 9.2197031e-39
252.00101 1309 134 9.2197031e-39
268.07501 1306.9301 138.30701 9.2197031e-39
277.36401 -1201.427 140.79601 9.2197031e-39
284.5495 -1193.5386 142.7215 9.2197031e-39
291.68701 -1187.5649 144.634 9.2197031e-39
295.50101 -1172.231 145.65601 9.2197031e-39
299.397 -1160.8579 146.7 9.2197031e-39
300.23401 -1118.6011 146.924 9.2197031e-39
289.56 -969.96204 144.064 9.2197031e-39
290.48999 -949.737 144.313 9.2197031e-39
283.34052 -804.93945 142.39801 9.2197031e-39
281.91901 -795.56201 142.017 9.2197031e-39
277.40799 -787.16101 140.808 9.2197031e-39
283.534 -785.14398 142.44901 9.2197031e-39
284.03699 -778.95203 142.584 9.2197031e-39
304.86401 -773.57599 148.16499 9.2197031e-39
282.22601 -760.987 142.099 9.2197031e-39
298.767 -760.87048 146.53101 9.2197031e-39
305.94299 -766.90503 148.45399 9.2197031e-39
311.198 -763.91797 149.862 9.2197031e-39
285.74997 -754.24103 143.04332 9.2197031e-39
292.84274 -755.08148 144.94376 9.2197031e-39
303.33948 -758.83649 147.7565 9.2197031e-39
301.44751 -742.58752 147.24951 9.2197031e-39
308.88 -470.78601 149.241 9.2197031e-39
307.85352 -465.39551 148.966 9.2197031e-39
311.32501 -462.05499 149.896 9.2197031e-39
275.117 -456.98901 140.194 9.2197031e-39
289.5 -455.11099 144.048 9.2197031e-39
292.6395 -450.8205 144.8895 9.2197031e-39
309.27197 -453.19235 149.34599 9.2197031e-39
276.177 -441.97 140.478 9.2197031e-39
287.95633 -444.74966 143.63434 9.2197031e-39
295.4025 -445.7045 145.62975 9.2197031e-39
306.24426 -441.41577 148.53476 9.2197031e-39
279.34 -439.47601 141.326 9.2197031e-39
284.60941 -435.65057 142.73779 9.2197031e-39
305.39899 -437.142 148.308 9.2197031e-39
311.539 -439.42401 149.953 9.2197031e-39
284.13199 1305.71 142.61 9.2197031e-39
300.06799 1300.35 146.88 9.2197031e-39
313.64099 -463.14801 150.517 9.2197031e-39
321.86099 -448.366 152.71899 9.2197031e-39
316.388 1308.84 151.25301 9.2197031e-39
332.47501 1308.1801 155.563 9.2197031e-39
348.961 1315.37 159.981 9.2197031e-39
365.51501 1321.41 164.416 9.2197031e-39
381.909 1323.3 168.80901 9.2197031e-39
398.19199 1323.05 173.172 9.2197031e-39
415.40601 1333.61 177.784 9.2197031e-39
432.254 1338.04 182.299 9.2197031e-39
449.29001 1343.3 186.864 9.2197031e-39
1315.6 1063.6 418.98901 9.2197031e-39
1339.84 1069.6801 425.48599 9.2197031e-39
1367 1079.5699 432.76401 9.2197031e-39
1429.51 619.05005 449.51401 9.2197031e-39
1418.74 1062.53 446.62701 9.2197031e-39
1428.3101 1690.3701 449.19199 9.2197031e-39
1412.77 1758.49 445.026 9.2197031e-39
1467.77 573.71997 459.76501 9.2197031e-39
1457.83 584.66003 457.10199 9.2197031e-39
1449.1899 596.90002 454.78601 9.2197031e-39
1440.4301 609.06995 452.44 9.2197031e-39
1435.01 1055.14 450.98599 9.2197031e-39
1468.63 1165.8199 459.99399 9.2197031e-39
1452.23 1786.95 455.60001 9.2197031e-39
1433.36 1853.01 450.543 9.2197031e-39
1501.38 504.70996 468.76999 9.2197031e-39
1486.1899 510.70996 464.69901 9.2197031e-39
1491.97 535.72998 466.24899 9.2197031e-39
1488.8101 552.91003 465.40201 9.2197031e-39
1481.1801 566.06995 463.358 9.2197031e-39
1493.91 1719.49 466.76801 9.2197031e-39
1473.85 1729.74 461.39301 9.2197031e-39
1513.6 495.94995 472.04501 9.2197031e-39
1529.5 490.23999 476.30499 9.2197031e-39
1507.38 1063.49 470.37701 9.2197031e-39
1508.6 1095.4 470.70401 9.2197031e-39
1540.5 1620.0601 479.25101 9.2197031e-39
1529.09 1644.54 476.194 9.2197031e-39
1512.9301 1707.3101 471.866 9.2197031e-39
1537.65 1705.3601 478.48801 9.2197031e-39
1547.65 486.20996 481.168 9.2197031e-39
1568.09 483.80005 486.646 9.2197031e-39
1573.8 1633.0601 488.17401 9.2197031e-39
1609.6801 1606.3101 497.79001 9.2197031e-39
1655.24 -4022.4399 509.99701 9.2197031e-39
1654.5699 -3861.3601 509.81799 9.2197031e-39
1652.77 -3782.1299 509.33499 9.2197031e-39
1649.33 -3702.29 508.414 9.2197031e-39
1647.22 -3561.53 507.84698 9.2197031e-39
1652.77 875.70996 509.33499 9.2197031e-39
1618.3 1056.16 500.099 9.2197031e-39
1648.05 1062.62 508.07101 9.2197031e-39
1622.77 1671.0701 501.29599 9.2197031e-39
1682.3199 -4457.5498 517.25299 9.2197031e-39
1659.91 -4300.27 511.24899 9.2197031e-39
1666.08 -4223.4297 512.90198 9.2197031e-39
1662.5601 -4125.52 511.95901 9.2197031e-39
1656.3 -3943.6001 510.28101 9.2197031e-39
1670.4 -3545.23 514.06 9.2197031e-39
1680.5699 1071.67 516.78497 9.2197031e-39
1669.22 1495.3899 513.742 9.2197031e-39
1720.34 -3787.03 527.44 9.2197031e-39
1702.1899 -3546.5601 522.57703 9.2197031e-39
1730.99 -3541.3301 530.29303 9.2197031e-39
1764.34 -3544.6299 539.22998 9.2197031e-39
1739.48 1051.4 532.56897 9.2197031e-39
1786.8 -3526.46 545.24799 9.2197031e-39
1828.73 -3544.8401 556.48401 9.2197031e-39
1857.3 -3537.45 564.13898 9.2197031e-39
1891.1801 -3539.29 573.216 9.2197031e-39
1924.72 -3539.8799 582.20203 9.2197031e-39
1953.91 -3532.3701 590.02502 9.2197031e-39
1988.66 -3533.9299 599.33502 9.2197031e-39
2024.58 -3536.79 608.96198 9.2197031e-39
2055.5 -3530.78 617.245 9.2197031e-39
2090.1299 -3530.3101 626.52502 9.2197031e-39
2074.8401 -2733.03 622.42798 9.2197031e-39
2079.1799 -2700.8701 623.59003 9.2197031e-39
2068.76 -2652.5801 620.79797 9.2197031e-39
2079.3999 -2628.77 623.65002 9.2197031e-39
2072.5 -2586.0698 621.79999 9.2197031e-39
2101.24 -2582.5 629.50299 9.2197031e-39
2068.75 -2448.3 620.79797 9.2197031e-39
2089.1299 -2436.6802 626.25702 9.2197031e-39
2097.53 -2413.1299 628.50897 9.2197031e-39
2124.8899 -3529.4399 635.83801 9.2197031e-39
2112.75 -2396.3799 632.58502 9.2197031e-39
2125.6799 -2377.48 636.05103 9.2197031e-39
2160.3101 -3528.99 645.33002 9.2197031e-39
2144.8999 -2364.5 641.20099 9.2197031e-39
2165.3799 -444.10199 646.68799 9.2197031e-39
2143.78 -428.65198 640.90198 9.2197031e-39
2148.04 -410.992 642.04102 9.2197031e-39
2145.4099 -393.974 641.33801 9.2197031e-39
2151.28 -375.97101 642.90997 9.2197031e-39
2153.1499 -358.33301 643.41199 9.2197031e-39
2195.8701 -3528.1201 654.85797 9.2197031e-39
2206.5801 -2659.1499 657.72699 9.2197031e-39
2191.0701 -2607.48 653.573 9.2197031e-39
2179.23 -2365.22 650.40002 9.2197031e-39
2196.23 -2349.71 654.95398 9.2197031e-39
2214.5701 -2335.3198 659.87 9.2197031e-39
2190.71 -459.64999 653.47498 9.2197031e-39
2232.1101 -3527.6499 664.56897 9.2197031e-39
2231.3501 -2319.46 664.36401 9.2197031e-39
2251.73 -2306.6001 669.82501 9.2197031e-39
2248.7 -473.569 669.01398 9.2197031e-39
2275.22 -3536.51 676.12097 9.2197031e-39
2275.04 -2296.02 676.073 9.2197031e-39
2286.3501 -489.62399 679.10101 9.2197031e-39
2316.3701 -3541.5901 687.14502 9.2197031e-39
2320.01 -506.52368 688.12097 9.2197031e-39
2346.8301 -3530.8601 695.30701 9.2197031e-39
2338.3999 -2318.1401 693.04901 9.2197031e-39
2344.4299 -2292.45 694.664 9.2197031e-39
2340.99 -2259.48 693.74298 9.2197031e-39
2350.6399 -524.12848 696.33002 9.2197031e-39
2391.8 -3539.78 707.35699 9.2197031e-39
2394.24 -2271.24 708.01202 9.2197031e-39
2394.1001 -561.29059 707.97302 9.2197031e-39
2380.1699 -542.30603 704.242 9.2197031e-39
2428.23 -600 717.11902 9.2197031e-39
2409.8 -580.50488 712.17999 9.2197031e-39
2451.1899 -3567.1399 723.271 9.2197031e-39
2456.1599 -619.91388 724.60199 9.2197031e-39
2485.8899 -2311.3 732.57001 9.2197031e-39
2518.3401 -3603.1101 741.26398 9.2197031e-39
2533.05 -2315.74 745.20599 9.2197031e-39
2535.6399 1214.11 745.89801 9.2197031e-39
2535.48 1246.98 745.85602 9.2197031e-39
2600.1201 -2333.98 763.17603 9.2197031e-39
2643.3799 -3712.4299 774.76898 9.2197031e-39
2661.3701 1245.73 779.59003 9.2197031e-39
2631.0701 1256 771.46899 9.2197031e-39
2677.6201 1224.48 783.94299 9.2197031e-39
2728.1299 333.03101 797.47803 9.2197031e-39
2751.1001 1245.47 803.63202 9.2197031e-39
2799.6101 -3857.02 816.63098 9.2197031e-39
2802.96 1249.21 817.52698 9.2197031e-39
2844.79 -3856.25 828.73499 9.2197031e-39
2883.9299 -3847.26 839.224 9.2197031e-39
2861.4399 1256.6801 833.19598 9.2197031e-39
2918.73 -3832.48 848.54901 9.2197031e-39
2929.8401 381.72601 851.526 9.2197031e-39
2937.8501 1275.53 853.66998 9.2197031e-39
2962.3501 -3827.8899 860.237 9.2197031e-39
3000.27 1283.21 870.39697 9.2197031e-39
3068.7 1293.71 888.73102 9.2197031e-39
3073.8301 -1088.871 890.10797 9.2197031e-39
3077.8501 -1063.359 891.18298 9.2197031e-39
3251.71 -654.20721 937.76898 9.2197031e-39
3298.45 -682.5882 950.29401 9.2197031e-39
3351.1799 -34.254028 964.422 9.2197031e-39
3383.46 -57.489014 973.07098 9.2197031e-39
3518.1899 26.708008 1009.17 9.2197031e-39
3590.2 -963.23596 1028.47 9.2197031e-39
3592.1799 -932.96802 1029 9.2197031e-39
3586.2 -901.995 1027.4 9.2197031e-39
3577.0601 -870.91901 1024.95 9.2197031e-39
3565.73 -839.89197 1021.91 9.2197031e-39
3666.01 1279.29 1048.78 9.2197031e-39
3700.6699 -818.37097 1058.0699 9.2197031e-39
3705.3201 1105.25 1059.3101 9.2197031e-39
3698.6299 1140.33 1057.52 9.2197031e-39
3691.6101 1175.42 1055.64 9.2197031e-39
3682.54 1209.61 1053.21 9.2197031e-39
3674.8601 1244.6899 1051.15 9.2197031e-39
3715.6201 -1008.55 1062.0699 9.2197031e-39
3744.54 934.79004 1069.8199 9.2197031e-39
3739.4399 969.87 1068.46 9.2197031e-39
3731.3701 1003.76 1066.29 9.2197031e-39
3727.3899 1039.7 1065.23 9.2197031e-39
3712.5601 1070.61 1061.25 9.2197031e-39
3766.55 -758.862 1075.72 9.2197031e-39
3790.1599 -791.96802 1082.05 9.2197031e-39
3820.3601 781.21997 1090.14 9.2197031e-39
3832.54 1412.66 1093.4 9.2197031e-39
3892.4399 270.10999 1109.45 9.2197031e-39
3892.48 304.83398 1109.46 9.2197031e-39
3885.6599 337.93103 1107.63 9.2197031e-39
3881.3501 371.724 1106.48 9.2197031e-39
3887.95 408.62 1108.25 9.2197031e-39
3862.28 686.96997 1101.37 9.2197031e-39
3874.4099 839.56006 1104.62 9.2197031e-39
3924.3 139.00299 1117.99 9.2197031e-39
3901.8301 203.16302 1111.97 9.2197031e-39
3894.9199 236.10602 1110.12 9.2197031e-39
3901.6499 447.83997 1111.92 9.2197031e-39
3905.6799 484.63 1113 9.2197031e-39
3907.8 666.35999 1113.5699 9.2197031e-39
3917.8601 894.95996 1116.26 9.2197031e-39
3938.04 -97.605011 1121.67 9.2197031e-39
3936.54 -63.905029 1121.27 9.2197031e-39
3933.0701 175.34198 1120.34 9.2197031e-39
3944.05 641.93994 1123.28 9.2197031e-39
3989.3899 619.95996 1135.4301 9.2197031e-39
3989.3701 1002.6801 1135.42 9.2197031e-39
4077.3401 1595.22 1159 9.2197031e-39
4060.3701 1630.6799 1154.45 9.2197031e-39
4249.02 1071.87 1205 9.2197031e-39
4262.0498 1944.04 1208.49 9.2197031e-39
4277.04 634.32996 1212.51 9.2197031e-39
4273.8701 672.98999 1211.66 9.2197031e-39
4496.3501 2199.3301 1271.27 9.2197031e-39
4554.7402 -1265.7329 1286.92 9.2197031e-39
4565.3101 -1148.29 1289.75 9.2197031e-39
4572.6299 -1228.645 1291.71 9.2197031e-39
4568.1802 -1188.281 1290.52 9.2197031e-39
4574.6602 2196.3799 1292.25 9.2197031e-39
4695.6099 -3821.2 1324.66 9.2197031e-39
4786.7402 2220.8601 1349.08 9.2197031e-39
4827.7402 2135 1360.0699 9.2197031e-39
4871.9302 2217.3401 1371.91 9.2197031e-39
5532.96 -4357.54 1549.03 9.2197031e-39
5605.8398 -3609.4399 1568.5601 9.2197031e-39
5618.0898 -4347.1499 1571.84 9.2197031e-39
5644.6299 -4295.2197 1578.95 9.2197031e-39
5635.8799 -4219.6699 1576.61 9.2197031e-39
5637.6802 -4152.0898 1577.09 9.2197031e-39
5631.3701 -4079.98 1575.4 9.2197031e-39
5632.5 -4013.48 1575.7 9.2197031e-39
5625.46 -3942.6001 1573.8101 9.2197031e-39
5622.6401 -3875.1399 1573.0601 9.2197031e-39
5615.7402 -3806 1571.21 9.2197031e-39
5611.46 -3739.2 1570.0601 9.2197031e-39
5611.52 -3675.6299 1570.08 9.2197031e-39
5685.25 -3282.9399 1589.83 9.2197031e-39
5682.27 -3221.5 1589.04 9.2197031e-39
5679.5498 -3160.73 1588.3101 9.2197031e-39
5696.6699 -3597.1101 1592.89 9.2197031e-39
5688.3101 -3529.79 1590.65 9.2197031e-39
5688.7002 -3467.8601 1590.76 9.2197031e-39
5687.6001 -3405.6899 1590.46 9.2197031e-39
5685.8701 -3343.76 1590 9.2197031e-39
5700.9302 -3111.6001 1594.03 9.2197031e-39
7243.9399 -852.77698 2007.48 9.2197031e-39
7257 -3753.3101 2010.98 9.2197031e-39
7260.2002 -3679.74 2011.84 9.2197031e-39
7261.7998 -3605.98 2012.27 9.2197031e-39
7256.4199 -3529.8 2010.83 9.2197031e-39
7264.6699 -3459.8101 2013.04 9.2197031e-39
7255.1401 -3383.0801 2010.49 9.2197031e-39
7256.6201 -3311.3 2010.88 9.2197031e-39
7254.7002 -3238.6799 2010.37 9.2197031e-39
7260.29 -3169.3101 2011.86 9.2197031e-39
7257.02 -3097.1101 2010.99 9.2197031e-39
7427.1099 -3085.45 2056.5601 9.2197031e-39
7626 -3080.48 2109.8601 9.2197031e-39
7692.96 551.29004 2127.8 9.2197031e-39
7690.6001 619.71997 2127.1699 9.2197031e-39
7773.8501 -2980.78 2149.47 9.2197031e-39
7810.6099 -3067.29 2159.3201 9.2197031e-39
7802.8901 -2915.5801 2157.25 9.2197031e-39
7806.29 -2477.6001 2158.1599 9.2197031e-39
7798.2998 -2403.6602 2156.02 9.2197031e-39
7799.0698 -2332.1699 2156.23 9.2197031e-39
7792.5898 -2259.3398 2154.5 9.2197031e-39
7791.1499 -2187.97 2154.1101 9.2197031e-39
7795.71 -2118.0801 2155.3301 9.2197031e-39
7790.1802 -2046.4 2153.8501 9.2197031e-39
7795.4199 -1977.03 2155.25 9.2197031e-39
7833.2598 -2850.5801 2165.3899 9.2197031e-39
7842.6401 -2779.3301 2167.8999 9.2197031e-39
7834.5898 -2703.4199 2165.75 9.2197031e-39
7827.7202 -2628.3301 2163.9099 9.2197031e-39
7817.3501 -2552.79 2161.1299 9.2197031e-39
