# .PCD v0.7 - Point Cloud Data file format
VERSION 0.7
FIELDS x y z rgb
SIZE 4 4 4 4
TYPE F F F F
COUNT 1 1 1 1
WIDTH 295
HEIGHT 1
VIEWPOINT 0 0 0 1 0 0 0
POINTS 295
DATA ascii
120.741 -7650 32.352402 9.2197031e-39
140.606 -826.33545 37.675301 9.2197031e-39
135.618 -816.6333 36.338699 9.2197031e-39
129.664 -805.59698 34.7435 9.2197031e-39
134.75951 -805.45264 36.108715 9.2197031e-39
128.01601 -795.7041 34.3018 9.2197031e-39
138.80299 -796.19952 37.192101 9.2197031e-39
146.77576 -793.95081 39.328449 9.2197031e-39
125.871 -786.83771 33.727001 9.2197031e-39
137.87233 -783.46777 36.942699 9.2197031e-39
142.20134 -783.76044 38.102734 9.2197031e-39
125.929 -776.81238 33.742599 9.2197031e-39
137.892 -775.43762 36.948101 9.2197031e-39
138.55499 -623.1828 37.125599 9.2197031e-39
142.23633 -622.46582 38.112064 9.2197031e-39
140.81366 -619.64581 37.730865 9.2197031e-39
145.237 -604.88269 38.91605 9.2197031e-39
142.483 -598.46497 38.178299 9.2197031e-39
145.442 -579.68799 38.971199 9.2197031e-39
148.5255 -555.3335 39.797249 9.2197031e-39
124.3485 -275.0325 33.319054 9.2197031e-39
138.774 -272.40701 37.184299 9.2197031e-39
124.391 -267.01599 33.330299 9.2197031e-39
131.967 -256.15201 35.3605 9.2197031e-39
147.218 -251.83701 39.4468 9.2197031e-39
135.944 -249.27499 36.426102 9.2197031e-39
144.04601 -239.63199 38.596901 9.2197031e-39
179.298 -7646.7402 48.042801 9.2197031e-39
156.907 -811.90198 42.043098 9.2197031e-39
154.92551 -805.72321 41.512123 9.2197031e-39
152.12601 -789.27081 40.761902 9.2197031e-39
154.85501 -621.5874 41.493248 9.2197031e-39
158.47566 -614.88037 42.463436 9.2197031e-39
149.496 -605.58203 40.0574 9.2197031e-39
151.147 -604.55823 40.499702 9.2197031e-39
160.74699 -602.42651 43.071999 9.2197031e-39
156.40033 -596.74103 41.907368 9.2197031e-39
161.79651 -594.76355 43.353249 9.2197031e-39
159.724 -589.11597 42.797901 9.2197031e-39
162.87451 -589.28796 43.642097 9.2197031e-39
150.489 -533.83002 40.323399 9.2197031e-39
179.409 -337.047 48.072399 9.2197031e-39
178.311 -323.69101 47.7784 9.2197031e-39
179.70599 -291.53601 48.152 9.2197031e-39
177.067 -285.078 47.445 9.2197031e-39
167.869 -271.771 44.980301 9.2197031e-39
174.828 -274.67001 46.8451 9.2197031e-39
172.183 -266.25699 46.136299 9.2197031e-39
163.98151 -255.2515 43.938751 9.2197031e-39
155.16333 -247.078 41.575901 9.2197031e-39
194.54201 -266.685 52.127499 9.2197031e-39
238.644 -7692.9302 63.944401 9.2197031e-39
303.47501 -7924.52 81.315903 9.2197031e-39
364.06201 -7913.6001 97.550003 9.2197031e-39
425.237 -7920.1201 113.942 9.2197031e-39
1190.02 880.95996 318.866 9.2197031e-39
1266.22 1530.3301 339.28201 9.2197031e-39
1258.97 1563.6499 337.34 9.2197031e-39
1235.72 1615.2 331.11099 9.2197031e-39
1258.26 1611.27 337.151 9.2197031e-39
1236.91 1669.22 331.42999 9.2197031e-39
1281.61 894.88 343.40701 9.2197031e-39
1302.66 894.64001 349.04599 9.2197031e-39
1279.04 920.57996 342.71799 9.2197031e-39
1290.48 1397.51 345.78201 9.2197031e-39
1281.79 1424.54 343.45401 9.2197031e-39
1270.39 1447.1899 340.401 9.2197031e-39
1271.15 1493.53 340.603 9.2197031e-39
1334.59 1433.3899 357.60101 9.2197031e-39
1412.17 1439.6299 378.39001 9.2197031e-39
1400.28 1504.6299 375.20401 9.2197031e-39
1434.97 1207.47 384.49799 9.2197031e-39
1449.88 1459.9299 388.49399 9.2197031e-39
1434.46 1519.4199 384.36301 9.2197031e-39
1489.79 902.02002 399.18799 9.2197031e-39
1483.95 1432.25 397.62399 9.2197031e-39
1489.08 1481.3799 398.99701 9.2197031e-39
1525.39 -4210.7402 408.72601 9.2197031e-39
1527 -4129.7998 409.15799 9.2197031e-39
1525.4301 -4044.52 408.737 9.2197031e-39
1520.96 -3955.8799 407.539 9.2197031e-39
1497.88 -3828.45 401.35501 9.2197031e-39
1511.95 -3788.7 405.125 9.2197031e-39
1510.9 -3717.3401 404.84399 9.2197031e-39
1521.55 628.89001 407.698 9.2197031e-39
1524.42 655.13 408.46799 9.2197031e-39
1516.14 744.62 406.24701 9.2197031e-39
1497.14 750.04004 401.15601 9.2197031e-39
1515.52 903.70996 406.08301 9.2197031e-39
1496.98 1261.0601 401.11499 9.2197031e-39
1533.61 -4413.2998 410.92899 9.2197031e-39
1533.73 -4320.6499 410.96301 9.2197031e-39
1531.8199 -3630.02 410.448 9.2197031e-39
1564.35 -3633.1899 419.16699 9.2197031e-39
1564.8 718.69995 419.28601 9.2197031e-39
1584.98 -3808.03 424.69299 9.2197031e-39
1593.04 -3628.02 426.853 9.2197031e-39
1583.53 639.81995 424.30499 9.2197031e-39
1602.95 889.02002 429.51001 9.2197031e-39
1592.16 905.25 426.61899 9.2197031e-39
1571.99 911.17004 421.21301 9.2197031e-39
1625.8199 -3630.5 435.638 9.2197031e-39
1640.02 528.85999 439.44101 9.2197031e-39
1628.09 541.29004 436.245 9.2197031e-39
1658.3 -3631.73 444.341 9.2197031e-39
1672.1899 -3597.6201 448.061 9.2197031e-39
1675.16 512.66003 448.85699 9.2197031e-39
1661.8101 524.21997 445.28101 9.2197031e-39
1705.83 -3043.5901 457.07501 9.2197031e-39
1695.41 506.30005 454.285 9.2197031e-39
1692.63 617.80005 453.54001 9.2197031e-39
1691.34 764.06006 453.19199 9.2197031e-39
1691.54 898.06995 453.24701 9.2197031e-39
1724.61 -3634.8401 462.10901 9.2197031e-39
1736.1801 -3044.6499 465.20801 9.2197031e-39
1720.11 -2979 460.90201 9.2197031e-39
1742.13 -2968.48 466.80301 9.2197031e-39
1753.97 528.46997 469.97501 9.2197031e-39
1738.3 917.16003 465.77701 9.2197031e-39
1755.09 -3630.6299 470.27399 9.2197031e-39
1784.63 -3624.3701 478.19 9.2197031e-39
1763.15 -3174.03 472.436 9.2197031e-39
1761.78 -2954.55 472.06601 9.2197031e-39
1787.1801 -2948.3601 478.875 9.2197031e-39
1783.14 527.60999 477.79001 9.2197031e-39
1819.17 -3626.3701 487.444 9.2197031e-39
1809.05 -2937.1599 484.73199 9.2197031e-39
1818.8199 -2910.0901 487.35101 9.2197031e-39
1806.08 521.71997 483.93799 9.2197031e-39
1853.36 -3627.1101 496.60599 9.2197031e-39
1847.72 -2907.8701 495.095 9.2197031e-39
1845.77 527.40002 494.57199 9.2197031e-39
1887.1801 -3626.6101 505.668 9.2197031e-39
1900.67 -2935.3999 509.28299 9.2197031e-39
1898.49 541.41003 508.69901 9.2197031e-39
1932.54 -3644.28 517.82202 9.2197031e-39
1939.34 -2904.4199 519.64398 9.2197031e-39
1935.08 876.12 518.50299 9.2197031e-39
1907.77 880.10999 511.185 9.2197031e-39
1966.76 -3642.8999 526.99103 9.2197031e-39
1949.25 -2956 522.29901 9.2197031e-39
1964.1899 -2895.45 526.302 9.2197031e-39
1976.86 -2871.97 529.698 9.2197031e-39
1970.54 -2826.8799 528.00403 9.2197031e-39
1970.12 -2789.4399 527.89301 9.2197031e-39
2001.62 -3641.95 536.33301 9.2197031e-39
1985.03 -2769.73 531.88702 9.2197031e-39
1999.08 -2749.1799 535.65198 9.2197031e-39
1988.63 579.93994 532.85199 9.2197031e-39
2039.3101 -3644.74 546.43201 9.2197031e-39
2017.63 -2733.5698 540.62097 9.2197031e-39
2043.5 -2725.6299 547.55298 9.2197031e-39
2048.9299 -348.01501 549.008 9.2197031e-39
2033.54 -332.978 544.88501 9.2197031e-39
2030.37 -315.711 544.03699 9.2197031e-39
2041.26 -295.48199 546.95398 9.2197031e-39
2043.45 -276.89999 547.539 9.2197031e-39
2050.4099 946.81006 549.40399 9.2197031e-39
2071.4299 -2719.5 555.03601 9.2197031e-39
2065.1599 -363.138 553.35699 9.2197031e-39
2056.78 -255.64899 551.112 9.2197031e-39
2071.78 -233.67599 555.133 9.2197031e-39
2075.29 -214.20001 556.073 9.2197031e-39
2120.0701 -2734.04 568.07001 9.2197031e-39
2091.77 -376.806 560.48901 9.2197031e-39
2096.4299 -190.02899 561.73602 9.2197031e-39
2098.6001 -170.44598 562.31799 9.2197031e-39
2117.3899 -146.12701 567.35199 9.2197031e-39
2097.75 -132.38599 562.09003 9.2197031e-39
2153.8101 -2732.5698 577.11102 9.2197031e-39
2164.3899 -421.457 579.94702 9.2197031e-39
2159.1001 -403.422 578.52802 9.2197031e-39
2130.73 -389.009 570.92603 9.2197031e-39
2162.1799 672.48999 579.35303 9.2197031e-39
2971.72 -3500.9099 796.26898 9.2197031e-39
2966.96 -3447.77 794.995 9.2197031e-39
2968.6499 -3401.6899 795.44702 9.2197031e-39
2975.52 -3361.1299 797.28802 9.2197031e-39
2986.27 -3324.6399 800.16803 9.2197031e-39
3000.27 -3291.4299 803.91803 9.2197031e-39
3061.6599 -3300.3899 820.37 9.2197031e-39
3130.45 -727.19189 838.802 9.2197031e-39
3097.72 -700 830.03198 9.2197031e-39
3187.4399 -672.29321 854.07098 9.2197031e-39
3177.4299 -644.76312 851.39001 9.2197031e-39
3424.3601 -1059.473 917.55499 9.2197031e-39
3420.54 -1028.943 916.53003 9.2197031e-39
3415.49 -998.42102 915.17603 9.2197031e-39
3406.3201 -967.70203 912.71997 9.2197031e-39
3433.6799 -1090.777 920.052 9.2197031e-39
3480.72 -943.24097 932.65601 9.2197031e-39
3537.05 -3667.75 947.75 9.2197031e-39
3545.3101 -916.84399 949.96301 9.2197031e-39
3548.4099 -358.31 950.79401 9.2197031e-39
3575.8 1006.12 958.13397 9.2197031e-39
3569.97 1041.65 956.57098 9.2197031e-39
3561.21 1075.87 954.224 9.2197031e-39
3554.72 1111.42 952.48401 9.2197031e-39
3547.03 1146.53 950.42401 9.2197031e-39
3609.0701 870.27002 967.047 9.2197031e-39
3600.99 904.17004 964.883 9.2197031e-39
3598.77 940.93994 964.28601 9.2197031e-39
3590.05 974.83997 961.95203 9.2197031e-39
3627.8701 803.94995 972.08398 9.2197031e-39
3623.0601 839.08997 970.79602 9.2197031e-39
3646.47 1240.8 977.06897 9.2197031e-39
3674.3301 -892.80603 984.53497 9.2197031e-39
3666.1699 563.85999 982.34802 9.2197031e-39
3659.9399 597.51001 980.677 9.2197031e-39
3686.0801 643.45996 987.68201 9.2197031e-39
3690 681.56995 988.73297 9.2197031e-39
3701.4299 540.33997 991.79401 9.2197031e-39
3717.4299 804.42004 996.08301 9.2197031e-39
3745.73 519.38 1003.67 9.2197031e-39
3740.4399 738.48999 1002.25 9.2197031e-39
3804.77 -299.133 1019.49 9.2197031e-39
3786.8601 -267.564 1014.69 9.2197031e-39
3788.8301 -233.728 1015.21 9.2197031e-39
3788.1201 497.10999 1015.02 9.2197031e-39
3835.9399 475.92004 1027.84 9.2197031e-39
3909.75 1474.3701 1047.61 9.2197031e-39
3927.0801 1439.5801 1052.26 9.2197031e-39
3963.3799 -3185.8501 1061.98 9.2197031e-39
4004.78 -3164.1001 1073.08 9.2197031e-39
4033.6799 -3134.0701 1080.8199 9.2197031e-39
4063.2 -3104.21 1088.73 9.2197031e-39
4099.21 -3078 1098.38 9.2197031e-39
4133.3999 -3050.3401 1107.54 9.2197031e-39
4118.1299 1786.6001 1103.45 9.2197031e-39
4151.0498 1660.6799 1112.27 9.2197031e-39
4203.75 -3043.0801 1126.39 9.2197031e-39
4271.77 -3938.3701 1144.62 9.2197031e-39
4302.3599 2057.96 1152.8101 9.2197031e-39
4366.1602 -4072.54 1169.91 9.2197031e-39
4340.0601 -3932.27 1162.91 9.2197031e-39
4399.1802 -3918.1201 1178.76 9.2197031e-39
4371.3198 2049.75 1171.29 9.2197031e-39
4464.6802 -3907.8 1196.3101 9.2197031e-39
4461.8701 -3140.1899 1195.55 9.2197031e-39
4446.2202 2044.1599 1191.36 9.2197031e-39
4541.3101 -4472.5801 1216.84 9.2197031e-39
4539.8198 -3903.4199 1216.4399 9.2197031e-39
4620.23 -4472.1499 1237.99 9.2197031e-39
4664.9302 2071.1599 1249.96 9.2197031e-39
4693.4302 -4465.5898 1257.6 9.2197031e-39
4717.3999 2047.5 1264.02 9.2197031e-39
4766.1001 -4457.3799 1277.0699 9.2197031e-39
5364.29 -4430.9199 1437.36 9.2197031e-39
5465.0498 -4362.1001 1464.35 9.2197031e-39
5473.0298 -4298.4297 1466.49 9.2197031e-39
5478.7202 -4233.8203 1468.02 9.2197031e-39
5487.6299 -4447.71 1470.4 9.2197031e-39
5547.5 -3687.25 1486.45 9.2197031e-39
5539.0601 -3620.1001 1484.1899 9.2197031e-39
5538.5098 -3557.8701 1484.04 9.2197031e-39
5536.46 -3495.4299 1483.49 9.2197031e-39
5543.3198 -3438.0701 1485.33 9.2197031e-39
5541.7798 -3376.9199 1484.92 9.2197031e-39
5552.7598 -3322.3501 1487.86 9.2197031e-39
5553.5601 -3263.22 1488.0699 9.2197031e-39
5557.3101 -3205.8999 1489.08 9.2197031e-39
5720.6299 1583.6699 1532.84 9.2197031e-39
6670.6499 -818.362 1787.4 9.2197031e-39
6835.4902 -882.034 1831.5601 9.2197031e-39
6856.1299 1299.47 1837.09 9.2197031e-39
6853.8398 1364.79 1836.48 9.2197031e-39
7089.4199 -3836.96 1899.6 9.2197031e-39
7090.7002 -3762.9399 1899.95 9.2197031e-39
7084.8599 -3612.9399 1898.38 9.2197031e-39
7083.98 -3539.6499 1898.15 9.2197031e-39
7082.3999 -3466.6001 1897.72 9.2197031e-39
7081.0298 -3394.1499 1897.35 9.2197031e-39
7078.0601 -3321.5801 1896.5601 9.2197031e-39
7075.3101 -3249.6201 1895.8199 9.2197031e-39
7087.3999 -3183.4299 1899.0601 9.2197031e-39
7086.8398 -1585.5029 1898.91 9.2197031e-39
7088.0898 -1014.932 1899.25 9.2197031e-39
7066.3398 -951.10199 1893.42 9.2197031e-39
7093.0601 -3689.9099 1900.58 9.2197031e-39
7091.8599 -1843.0699 1900.26 9.2197031e-39
7104.1001 -1780.49 1903.54 9.2197031e-39
7093.8101 -1714.5701 1900.78 9.2197031e-39
7110.7202 -1652.7109 1905.3101 9.2197031e-39
7091.4399 -447.991 1900.15 9.2197031e-39
7099.6699 -384.54501 1902.35 9.2197031e-39
7301.3501 -3187.3501 1956.39 9.2197031e-39
7495.6602 -3180.79 2008.46 9.2197031e-39
7517.3101 -298.68799 2014.26 9.2197031e-39
7510.75 -232.06299 2012.5 9.2197031e-39
7518.0898 -164.47998 2014.47 9.2197031e-39
7517.1499 -97.356018 2014.21 9.2197031e-39
7680.27 -3167.5901 2057.9199 9.2197031e-39
7668.4502 -3088.97 2054.75 9.2197031e-39
8035.6099 -3127.2 2153.1299 9.2197031e-39
8391.8896 -3155.3799 2248.6001 9.2197031e-39
