# .PCD v0.7 - Point Cloud Data file format
VERSION 0.7
FIELDS x y z rgb
SIZE 4 4 4 4
TYPE F F F F
COUNT 1 1 1 1
WIDTH 306
HEIGHT 1
VIEWPOINT 0 0 0 1 0 0 0
POINTS 306
DATA ascii
119.741 -7692 32.352402 9.2197031e-39
146.033 -871.85803 39.397301 9.2197031e-39
129.235 -860.70001 34.896301 9.2197031e-39
144.53751 -861.97205 38.996651 9.2197031e-39
135.72101 -851.06104 36.634201 9.2197031e-39
129.37601 -842.65198 34.934101 9.2197031e-39
137.04199 -845.37848 36.9883 9.2197031e-39
144.89999 -847.72101 39.093899 9.2197031e-39
129.896 -833.58704 35.073502 9.2197031e-39
134.10199 -833.83496 36.200531 9.2197031e-39
144.20799 -836.672 38.908401 9.2197031e-39
143.701 -827.612 38.7724 9.2197031e-39
145.31532 -817.02924 39.205002 9.2197031e-39
147.52499 -582.46997 39.79705 9.2197031e-39
147.336 -576.255 39.746498 9.2197031e-39
139.989 -567.65002 37.777802 9.2197031e-39
145.3725 -563.578 39.220299 9.2197031e-39
138.9595 -553.84949 37.501999 9.2197031e-39
144.04651 -555.69824 38.865051 9.2197031e-39
139.282 -535.237 37.588402 9.2197031e-39
119.741 1176 32.352402 9.2197031e-39
135.545 1174.9301 36.5872 9.2197031e-39
178.76199 -7701.73 48.167 9.2197031e-39
167.797 -853.12 45.229099 9.2197031e-39
170.80551 -855.77197 46.035099 9.2197031e-39
165.052 -848.78003 44.493599 9.2197031e-39
173.188 -847.99402 46.6735 9.2197031e-39
157.049 -832.48352 42.349098 9.2197031e-39
164.11166 -834.67731 44.241634 9.2197031e-39
151.92534 -824.27399 40.976299 9.2197031e-39
149.246 -581.88599 40.258301 9.2197031e-39
150.737 -582.297 40.657749 9.2197031e-39
156.14632 -572.80298 42.107132 9.2197031e-39
172.86267 -574.53198 46.586365 9.2197031e-39
149.63699 -560.39001 40.362999 9.2197031e-39
159.82401 -568.38696 43.092701 9.2197031e-39
163.668 -566.00854 44.1227 9.2197031e-39
176.19049 -564.04102 47.478001 9.2197031e-39
182.789 -561.62354 49.246101 9.2197031e-39
166.9545 -556.08752 45.0033 9.2197031e-39
172.97766 -557.64697 46.6171 9.2197031e-39
150.745 -542.23199 40.66 9.2197031e-39
176.72949 -544.30548 47.622452 9.2197031e-39
151.433 1179.71 40.844398 9.2197031e-39
167.14999 1174.36 45.055698 9.2197031e-39
183.14999 1179.85 49.3428 9.2197031e-39
214.931 1180.42 57.858601 9.2197031e-39
199.457 1190.2 53.712101 9.2197031e-39
238.2 -7725.9302 64.093399 9.2197031e-39
231.19099 1186.47 62.215401 9.2197031e-39
247.22301 1187.39 66.511101 9.2197031e-39
263.73401 1194.14 70.935097 9.2197031e-39
280.19901 1198.75 75.347099 9.2197031e-39
296.56799 1201.21 79.7332 9.2197031e-39
302.45001 -7923.52 81.309196 9.2197031e-39
313.496 1208.49 84.268898 9.2197031e-39
329.466 1205.67 88.548103 9.2197031e-39
363.26401 -7919.6001 97.604202 9.2197031e-39
424.15201 -7918.1201 113.919 9.2197031e-39
592.06799 -259.71201 158.912 9.2197031e-39
587.83002 -189.336 157.776 9.2197031e-39
590.09497 -177.81299 158.383 9.2197031e-39
614.29846 -250.99649 164.8685 9.2197031e-39
628.01202 -250.582 168.543 9.2197031e-39
599.409 -236.923 160.879 9.2197031e-39
610.41602 -234.51801 163.828 9.2197031e-39
598.28998 -229.854 160.57899 9.2197031e-39
598.55902 -212.86801 160.651 9.2197031e-39
600.56201 -219.29599 161.188 9.2197031e-39
597.84998 -205.02499 160.461 9.2197031e-39
596.14301 -189.26901 160.004 9.2197031e-39
607.87701 -185.74597 163.14799 9.2197031e-39
608.51599 -147.77899 163.319 9.2197031e-39
612.245 -133.724 164.31799 9.2197031e-39
607.453 -129.29602 163.034 9.2197031e-39
614.36951 -105.689 164.88751 9.2197031e-39
612.724 -91.760986 164.44701 9.2197031e-39
622.93799 -68.039001 167.18401 9.2197031e-39
634.00098 -253.263 170.14799 9.2197031e-39
645.20001 -251.565 173.149 9.2197031e-39
657.21698 -249.40701 176.369 9.2197031e-39
668.55402 -248.05399 179.40601 9.2197031e-39
695.99298 -250.444 186.759 9.2197031e-39
686.05054 -246.0405 184.09451 9.2197031e-39
709.07898 -248.53 190.265 9.2197031e-39
728.49103 -242.11499 195.466 9.2197031e-39
1216.14 951.55005 326.13199 9.2197031e-39
1230.58 942.40002 330 9.2197031e-39
1252.8199 1652.78 335.961 9.2197031e-39
1250.73 1700.6799 335.401 9.2197031e-39
1301.71 1507.54 349.05899 9.2197031e-39
1286.28 1524.29 344.92499 9.2197031e-39
1284.26 1567.4099 344.38501 9.2197031e-39
1278.04 1603.5701 342.71799 9.2197031e-39
1277.88 1653.1499 342.673 9.2197031e-39
1334 938.27002 357.71201 9.2197031e-39
1320.72 949.97998 354.155 9.2197031e-39
1307.35 961.56995 350.57001 9.2197031e-39
1314.11 1441.6799 352.38199 9.2197031e-39
1310.28 1478.5 351.35599 9.2197031e-39
1352.22 1466.1399 362.59299 9.2197031e-39
1380.67 941.13 370.21799 9.2197031e-39
1452.63 1508.3201 389.49899 9.2197031e-39
1434.11 1564.6399 384.535 9.2197031e-39
1475.47 1267.72 395.62 9.2197031e-39
1482.61 1514.75 397.53299 9.2197031e-39
1471.8199 1584.22 394.64001 9.2197031e-39
1519.71 -3880.3101 407.47198 9.2197031e-39
1520.96 1296.65 407.80899 9.2197031e-39
1514.9399 1482.28 406.19501 9.2197031e-39
1512.28 1519.96 405.48099 9.2197031e-39
1547.64 -4551.02 414.95599 9.2197031e-39
1549.95 -4458.8896 415.577 9.2197031e-39
1555.17 -4378.1396 416.974 9.2197031e-39
1544.72 -4261.5601 414.17401 9.2197031e-39
1541.85 -4168.46 413.405 9.2197031e-39
1540.6 -4083.03 413.07101 9.2197031e-39
1539.21 -4000.6399 412.69699 9.2197031e-39
1536.67 -3845.79 412.01599 9.2197031e-39
1536.9301 -3776.01 412.08701 9.2197031e-39
1542.02 -3653.28 413.45099 9.2197031e-39
1570.8101 -3648.3401 421.164 9.2197031e-39
1602.74 -3649.3101 429.72101 9.2197031e-39
1604.72 -3852.0701 430.25201 9.2197031e-39
1632.08 -3644.6299 437.582 9.2197031e-39
1656.84 -3630.8601 444.21701 9.2197031e-39
1692.26 -3636.97 453.707 9.2197031e-39
1725.52 -3638.3201 462.61899 9.2197031e-39
1735.85 -3089.47 465.388 9.2197031e-39
1749.2 -3065.01 468.965 9.2197031e-39
1745.23 -3016.22 467.89999 9.2197031e-39
1752.63 -2984.5601 469.88199 9.2197031e-39
1762.78 -3646.22 472.603 9.2197031e-39
1763.8 -3176.5 472.875 9.2197031e-39
1777.63 -2977.71 476.58301 9.2197031e-39
1793.9301 -3642.46 480.94901 9.2197031e-39
1799.12 -2965.8201 482.341 9.2197031e-39
1819.9399 -2952.9199 487.91901 9.2197031e-39
1802.58 542.69995 483.26901 9.2197031e-39
1828.61 -3644.3701 490.24301 9.2197031e-39
1862.45 -3644.1699 499.31 9.2197031e-39
1832.25 -2928.8701 491.21799 9.2197031e-39
1828.8199 538.93005 490.298 9.2197031e-39
1896.42 -3643.5701 508.41101 9.2197031e-39
1866.17 -2932.74 500.30701 9.2197031e-39
1881.39 553.45996 504.384 9.2197031e-39
1936.21 -3651.8701 519.07397 9.2197031e-39
1916.26 -2956.23 513.72803 9.2197031e-39
1930.3199 564.33997 517.49701 9.2197031e-39
1969.97 -3649.6001 528.11902 9.2197031e-39
1963.77 -2975.1499 526.45801 9.2197031e-39
1950.26 -2918.8601 522.83698 9.2197031e-39
1976.49 -2911.3 529.86798 9.2197031e-39
2004.89 -3648.6201 537.47601 9.2197031e-39
1980.98 -2877.96 531.07001 9.2197031e-39
1981.17 -2840.26 531.12097 9.2197031e-39
1979.5699 -2801.24 530.69098 9.2197031e-39
1991.9399 -2778.51 534.005 9.2197031e-39
2008.0601 -2760.0601 538.32501 9.2197031e-39
2042.1 -3650.54 547.44501 9.2197031e-39
2019.3101 -2736.45 541.34003 9.2197031e-39
2043.85 -2727.0601 547.91602 9.2197031e-39
2044.89 -330.60901 548.19299 9.2197031e-39
2041.7 -313.23001 547.34003 9.2197031e-39
2048.78 -293.68799 549.23602 9.2197031e-39
2017.4301 600.35999 540.83698 9.2197031e-39
2085.1201 -359.50699 558.97302 9.2197031e-39
2071.71 -343.67401 555.38 9.2197031e-39
2063.23 -272.32599 553.10901 9.2197031e-39
2078.4099 -250.45499 557.177 9.2197031e-39
2083.02 -230.75201 558.41101 9.2197031e-39
2090.9199 -2740.71 560.52698 9.2197031e-39
2125.27 -2740.3501 569.73102 9.2197031e-39
2114.6299 -372.896 566.88 9.2197031e-39
2094.02 -209.298 561.35797 9.2197031e-39
2106.6799 -187.12598 564.75 9.2197031e-39
2120.98 -164.18701 568.58301 9.2197031e-39
2142.1399 -387.08701 574.25403 9.2197031e-39
2130.3799 -142.245 571.10199 9.2197031e-39
2171.49 -401.474 582.11603 9.2197031e-39
2204.9199 -2784.6699 591.07501 9.2197031e-39
2206.49 -415.58301 591.49402 9.2197031e-39
2218.6899 711.16003 594.76501 9.2197031e-39
2254.99 -86.955017 604.48901 9.2197031e-39
2984.3301 -3465.5 799.91602 9.2197031e-39
2976.9099 -3410.47 797.92798 9.2197031e-39
2987.53 -3517.4399 800.77502 9.2197031e-39
2985.29 -3371.1699 800.17401 9.2197031e-39
2996.1201 -3334.5801 803.07599 9.2197031e-39
2999.99 -3292.0901 804.11401 9.2197031e-39
3108.3999 -3342.6001 833.16199 9.2197031e-39
3105.4199 -700 832.362 9.2197031e-39
3169.05 -727.54968 849.41302 9.2197031e-39
3197.0601 -672.19733 856.91803 9.2197031e-39
3190.9199 -644.50128 855.271 9.2197031e-39
3226.0601 -615.78882 864.68799 9.2197031e-39
3460.51 -1094.0601 927.51001 9.2197031e-39
3467.6101 -1033.735 929.41101 9.2197031e-39
3462.6001 -1002.779 928.06799 9.2197031e-39
3459.25 -972.09601 927.16998 9.2197031e-39
3477.1599 -1065.327 931.96899 9.2197031e-39
3511.52 -945.54297 941.17603 9.2197031e-39
3561.21 -3689.6101 954.49103 9.2197031e-39
3577.22 -355.33899 958.78101 9.2197031e-39
3576.1001 1123.23 958.47998 9.2197031e-39
3568.3101 1158.54 956.39301 9.2197031e-39
3593.48 -919.95801 963.138 9.2197031e-39
3610.0701 946.75 967.58301 9.2197031e-39
3603.9399 982.02002 965.94 9.2197031e-39
3597.47 1017.3101 964.20697 9.2197031e-39
3591.55 1053.05 962.61902 9.2197031e-39
3584.4199 1088.36 960.70898 9.2197031e-39
3649.1799 813.51001 978.06201 9.2197031e-39
3635.3999 844.94995 974.37 9.2197031e-39
3628.4399 879.44995 972.50598 9.2197031e-39
3622.9399 914.73999 971.03101 9.2197031e-39
3631.8301 1233.28 973.41199 9.2197031e-39
3692.6299 609.85999 989.70398 9.2197031e-39
3707.1001 -894.63696 993.58099 9.2197031e-39
3716.3201 582.08997 996.052 9.2197031e-39
3728.6499 659.87 999.35602 9.2197031e-39
3727.9099 696.63 999.15698 9.2197031e-39
3759.97 560.96997 1007.75 9.2197031e-39
3748.6699 817.91003 1004.72 9.2197031e-39
3803.53 539.16003 1019.42 9.2197031e-39
3775.51 752.81995 1011.91 9.2197031e-39
3825.8701 -296.729 1025.41 9.2197031e-39
3814.6499 -264.168 1022.4 9.2197031e-39
3820.4199 -229.58401 1023.95 9.2197031e-39
3839.6299 514.25 1029.09 9.2197031e-39
3876.51 489.07996 1038.97 9.2197031e-39
3934.9399 1489.3999 1054.63 9.2197031e-39
3984.5 -3200.1599 1067.91 9.2197031e-39
3986.48 -3153.1299 1068.4399 9.2197031e-39
3977.02 1468.21 1065.91 9.2197031e-39
4010.3301 -3120.1599 1074.83 9.2197031e-39
4057.21 -3101.1599 1087.39 9.2197031e-39
4094.8701 -3076 1097.48 9.2197031e-39
4135.7598 -3052.3101 1108.4399 9.2197031e-39
4151.73 1661.6599 1112.72 9.2197031e-39
4146.1099 1804.6299 1111.21 9.2197031e-39
4303.9399 -3964.24 1153.5 9.2197031e-39
4336.3901 2081.0601 1162.2 9.2197031e-39
4369.3398 -3955.47 1171.03 9.2197031e-39
4413.4302 -4110.8896 1182.84 9.2197031e-39
4434.9102 -3945.75 1188.6 9.2197031e-39
4430 -3173.5 1187.28 9.2197031e-39
4413.73 2077.8401 1182.92 9.2197031e-39
4505.3599 -3938.5801 1207.47 9.2197031e-39
4490.52 2072.8999 1203.5 9.2197031e-39
4544.0298 -4475.7598 1217.84 9.2197031e-39
4574.4199 -3929.24 1225.98 9.2197031e-39
4623.73 -4475.9199 1239.1899 9.2197031e-39
4704.5298 -4475.5498 1260.84 9.2197031e-39
4704.7202 2096.03 1260.89 9.2197031e-39
4744 2064 1271.42 9.2197031e-39
4783.3701 -4472.1602 1281.97 9.2197031e-39
5415.8301 -4468.2998 1451.4301 9.2197031e-39
5480.3701 -3713.26 1468.73 9.2197031e-39
5497.8398 -4455.54 1473.41 9.2197031e-39
5517.21 -4398.5303 1478.6 9.2197031e-39
5510.9102 -4324.5703 1476.91 9.2197031e-39
5509.4902 -4254.77 1476.53 9.2197031e-39
5559.0898 -3385.96 1489.8199 9.2197031e-39
5557.8901 -3325.3 1489.5 9.2197031e-39
5569.5298 -3699.9199 1492.62 9.2197031e-39
5562.9102 -3633.49 1490.84 9.2197031e-39
5571.0698 -3575.5801 1493.03 9.2197031e-39
5561.3901 -3508.8201 1490.4399 9.2197031e-39
5561.4199 -3447.71 1490.45 9.2197031e-39
5563.1099 -3268.2 1490.9 9.2197031e-39
5585.4302 -3219.3301 1496.88 9.2197031e-39
5755.5801 1598.3301 1542.47 9.2197031e-39
6731.46 -819.479 1803.96 9.2197031e-39
6896.29 -883.71002 1848.12 9.2197031e-39
6896.9199 1311.88 1848.29 9.2197031e-39
6898.2202 1378.71 1848.64 9.2197031e-39
7122.5498 -3410.6101 1908.75 9.2197031e-39
7125.2998 -3268.3101 1909.48 9.2197031e-39
7115.0698 -1016.197 1906.75 9.2197031e-39
7127.1299 -953.33502 1909.97 9.2197031e-39
7116.5098 -447.048 1907.13 9.2197031e-39
7114.1099 -383.84698 1906.49 9.2197031e-39
7132.71 -3856.8999 1911.47 9.2197031e-39
7143.0498 -3786.3899 1914.24 9.2197031e-39
7137.5698 -3709.4199 1912.77 9.2197031e-39
7131.3198 -3632.8 1911.1 9.2197031e-39
7131.5098 -3559.4399 1911.15 9.2197031e-39
7128.29 -3485.24 1910.29 9.2197031e-39
7136.96 -3344.1599 1912.61 9.2197031e-39
7128.4102 -3198.4099 1910.3199 9.2197031e-39
7150.02 -1852.77 1916.11 9.2197031e-39
7142.27 -1786.55 1914.03 9.2197031e-39
7147.3301 -1722.5 1915.39 9.2197031e-39
7142.2798 -1657.1489 1914.03 9.2197031e-39
7149.1201 -1593.546 1915.87 9.2197031e-39
7337.8999 -3200.3601 1966.45 9.2197031e-39
7530.4902 -3192.8401 2018.0601 9.2197031e-39
7554.8901 -296.59399 2024.59 9.2197031e-39
7551.21 -229.43799 2023.61 9.2197031e-39
7544.0698 -162.526 2021.6899 9.2197031e-39
7557.5498 -93.981995 2025.3101 9.2197031e-39
7713.3599 -3178.72 2067.05 9.2197031e-39
7709.02 -3102.1299 2065.8899 9.2197031e-39
8040.1602 -3128.8999 2154.6201 9.2197031e-39
8411.3096 -3161.4399 2254.0701 9.2197031e-39
