# .PCD v0.7 - Point Cloud Data file format
VERSION 0.7
FIELDS x y z rgb
SIZE 4 4 4 4
TYPE F F F F
COUNT 1 1 1 1
WIDTH 313
HEIGHT 1
VIEWPOINT 0 0 0 1 0 0 0
POINTS 313
DATA ascii
254.5415 -1204.9885 134.681 9.2197031e-39
262.216 -1205.908 136.737 9.2197031e-39
272.26001 -1200.634 139.429 9.2197031e-39
267.146 -1198.7949 138.058 9.2197031e-39
272.36499 -771.71002 139.457 9.2197031e-39
268.95099 -457.073 138.54201 9.2197031e-39
273.55899 -450.659 139.77699 9.2197031e-39
272.36652 -444.92801 139.457 9.2197031e-39
252.00101 1299 134 9.2197031e-39
268.07501 1306.9301 138.30701 9.2197031e-39
277.40701 -1202.426 140.808 9.2197031e-39
284.633 -1195.036 142.744 9.2197031e-39
291.754 -1188.563 144.65199 9.2197031e-39
295.50101 -1172.231 145.65601 9.2197031e-39
299.98599 -1167.8311 146.858 9.2197031e-39
299.216 -1107.652 146.651 9.2197031e-39
290.67001 -980.90198 144.362 9.2197031e-39
290.48999 -949.737 144.313 9.2197031e-39
282.06601 -796.54541 142.05634 9.2197031e-39
283.70099 -786.12903 142.494 9.2197031e-39
275.04248 -775.38354 140.1745 9.2197031e-39
282.629 -771.086 142.207 9.2197031e-39
285.13065 -761.36566 142.87733 9.2197031e-39
295.108 -760.92603 145.55099 9.2197031e-39
303.71201 -764.70459 147.85619 9.2197031e-39
285.32635 -755.54865 142.93001 9.2197031e-39
294.08374 -757.05322 145.27625 9.2197031e-39
286.81799 -744.57397 143.32899 9.2197031e-39
302.23801 -742.81897 147.461 9.2197031e-39
296.92999 -727.79797 146.039 9.2197031e-39
309.367 -460.08301 149.37199 9.2197031e-39
287.63333 -455.64804 143.54799 9.2197031e-39
291.18298 -456.1105 144.49899 9.2197031e-39
310.5303 -454.81332 149.683 9.2197031e-39
276.87 -446.13901 140.664 9.2197031e-39
286.979 -445.18869 143.37233 9.2197031e-39
296.2655 -447.74902 145.8605 9.2197031e-39
303.05301 -443.19153 147.67999 9.2197031e-39
311.474 -443.69 149.936 9.2197031e-39
277.9935 -439.2435 140.965 9.2197031e-39
283.59253 -435.47748 142.465 9.2197031e-39
306.09552 -437.38 148.49451 9.2197031e-39
310.522 -437.95599 149.681 9.2197031e-39
284.13199 1305.71 142.61 9.2197031e-39
300.14401 1303.35 146.89999 9.2197031e-39
312.20865 -463.2023 150.13301 9.2197031e-39
317.28699 -458.29401 151.494 9.2197031e-39
311.88501 -438.491 150.04601 9.2197031e-39
348.91 1314.37 159.967 9.2197031e-39
316.79199 1320.83 151.36099 9.2197031e-39
332.98099 1320.17 155.69901 9.2197031e-39
365.69199 1324.4 164.464 9.2197031e-39
382.04401 1325.3 168.845 9.2197031e-39
398.41901 1326.04 173.233 9.2197031e-39
414.64801 1324.65 177.58099 9.2197031e-39
432.34698 1339.03 182.32401 9.2197031e-39
448.48199 1335.34 186.647 9.2197031e-39
1309.2 1053.6 417.27499 9.2197031e-39
1333.36 1059.73 423.74899 9.2197031e-39
1368.64 1082.04 433.20401 9.2197031e-39
1430.88 620.46997 449.88 9.2197031e-39
1425.55 1072.24 448.453 9.2197031e-39
1415.84 1764.73 445.849 9.2197031e-39
1468.48 574.40002 459.95401 9.2197031e-39
1459.9301 586.71997 457.66501 9.2197031e-39
1449.89 597.58997 454.97198 9.2197031e-39
1439.75 608.37 452.255 9.2197031e-39
1447.0699 1072.02 454.21899 9.2197031e-39
1463.58 1158.49 458.642 9.2197031e-39
1431.49 1696.55 450.043 9.2197031e-39
1464.63 1712.1699 458.923 9.2197031e-39
1447.3199 1777.1899 454.285 9.2197031e-39
1433.79 1853.9099 450.659 9.2197031e-39
1501.38 504.70996 468.76999 9.2197031e-39
1486.1899 510.70996 464.69901 9.2197031e-39
1491.25 535.06995 466.05499 9.2197031e-39
1492.4 556.26001 466.36401 9.2197031e-39
1482.6 567.42004 463.73901 9.2197031e-39
1504.21 1738.73 469.52802 9.2197031e-39
1513.6 495.94995 472.04501 9.2197031e-39
1530.99 491.51001 476.70401 9.2197031e-39
1540.5 1620.0601 479.25101 9.2197031e-39
1529.58 1645.4099 476.32599 9.2197031e-39
1514.36 1709.9199 472.24899 9.2197031e-39
1538.13 1706.23 478.61801 9.2197031e-39
1549.15 487.46997 481.57001 9.2197031e-39
1568.85 484.42004 486.849 9.2197031e-39
1574.3 1633.9199 488.30899 9.2197031e-39
1651.8199 -3854.96 509.08099 9.2197031e-39
1649.5699 -3774.8501 508.47601 9.2197031e-39
1653.8199 -3712.26 509.617 9.2197031e-39
1645.52 -3557.9299 507.39301 9.2197031e-39
1648.03 870.71997 508.065 9.2197031e-39
1627.71 1067.5699 502.62 9.2197031e-39
1648.6801 1063.38 508.23999 9.2197031e-39
1617.97 1242.96 500.01001 9.2197031e-39
1649.27 1465.8999 508.397 9.2197031e-39
1620.58 1624.02 500.70999 9.2197031e-39
1624.8199 1674.46 501.845 9.2197031e-39
1681.63 -4455.6899 517.06799 9.2197031e-39
1657.08 -4292.8301 510.48999 9.2197031e-39
1666.8 -4225.29 513.09601 9.2197031e-39
1662.9301 -4126.4502 512.05798 9.2197031e-39
1659.77 -4033.48 511.20999 9.2197031e-39
1657.0699 -3945.4299 510.48801 9.2197031e-39
1671.26 -3547.02 514.29102 9.2197031e-39
1682.98 1045.3199 517.42902 9.2197031e-39
1716.6 -3778.8999 526.43701 9.2197031e-39
1698.6801 -3539.4299 521.63702 9.2197031e-39
1723.55 1062.5601 528.29901 9.2197031e-39
1731.4301 -3542.21 530.41302 9.2197031e-39
1764.79 -3545.51 539.35101 9.2197031e-39
1744.75 1057.25 533.98102 9.2197031e-39
1787.26 -3527.3401 545.37097 9.2197031e-39
1828.73 -3544.8401 556.48401 9.2197031e-39
1857.78 -3538.3201 564.26703 9.2197031e-39
1892.63 -3541.8899 573.604 9.2197031e-39
1920.79 -3532.99 581.15198 9.2197031e-39
1954.9 -3534.0801 590.29199 9.2197031e-39
1988.15 -3533.0801 599.20001 9.2197031e-39
1967.84 -3090.3799 593.75897 9.2197031e-39
1984.8 -3069.1201 598.30103 9.2197031e-39
2025.61 -3538.49 609.23602 9.2197031e-39
1995.63 -3226.49 601.20398 9.2197031e-39
2006.0699 -3193.4299 604.00098 9.2197031e-39
1999.22 -3044.53 602.16602 9.2197031e-39
2020.34 -3029.45 607.82599 9.2197031e-39
2056.02 -3531.6299 617.38397 9.2197031e-39
2032.66 -3385.1799 611.125 9.2197031e-39
2051.2 -3361.52 616.09497 9.2197031e-39
2033.11 -3003.0701 611.24597 9.2197031e-39
2058.05 -2993.1899 617.93103 9.2197031e-39
2093.8101 -3536.1799 627.51099 9.2197031e-39
2085.97 -2986.95 625.41199 9.2197031e-39
2106.03 -2970.29 630.784 9.2197031e-39
2114.8701 -2939.5701 633.15601 9.2197031e-39
2137.01 -2925.71 639.086 9.2197031e-39
2164.7 -2918.48 646.505 9.2197031e-39
2168.27 -443.866 647.46198 9.2197031e-39
2146.6699 -428.39001 641.67499 9.2197031e-39
2149.96 -410.80099 642.55603 9.2197031e-39
2146.3701 -393.87 641.59497 9.2197031e-39
2150.3201 -376.08398 642.65302 9.2197031e-39
2154.1101 -358.211 643.66901 9.2197031e-39
2199.3799 -459.022 655.79901 9.2197031e-39
2219.02 -2942.6201 661.06097 9.2197031e-39
2220.1299 -2903.04 661.35797 9.2197031e-39
2239.47 -2885.1699 666.53998 9.2197031e-39
2241.95 -473.996 667.20599 9.2197031e-39
2258 -2866.3899 671.50598 9.2197031e-39
2288.27 -489.51898 679.61798 9.2197031e-39
2300.0801 -2873.78 682.78302 9.2197031e-39
2320.01 -506.52368 688.12097 9.2197031e-39
2361.0601 -2900.8899 699.12097 9.2197031e-39
2352.5701 -524.05872 696.84698 9.2197031e-39
2396.99 -561.23822 708.74902 9.2197031e-39
2373.4099 -542.48932 702.42999 9.2197031e-39
2424.6599 -2929.22 716.16302 9.2197031e-39
2437.4399 -2902.3701 719.58698 9.2197031e-39
2428.23 -600 717.11902 9.2197031e-39
2410.76 -580.49622 712.43799 9.2197031e-39
2473.1599 -2899.51 729.15698 9.2197031e-39
2456.1599 -619.91388 724.60199 9.2197031e-39
2538.7 1216.54 746.71899 9.2197031e-39
2537.76 1248.83 746.46802 9.2197031e-39
2659.8201 1244.54 779.17401 9.2197031e-39
2626.4399 1252.39 770.229 9.2197031e-39
2684.6599 1229.77 785.828 9.2197031e-39
2736.3 336.10901 799.66699 9.2197031e-39
2750.3101 1244.89 803.42102 9.2197031e-39
2804.54 1250.36 817.95099 9.2197031e-39
2863.8201 1258.38 833.836 9.2197031e-39
2922.5601 379.05499 849.57397 9.2197031e-39
2931.4399 1271.0601 851.953 9.2197031e-39
2993.8301 1278.79 868.66998 9.2197031e-39
3067.1699 -1087.7161 888.32098 9.2197031e-39
3061.3999 1288.8101 886.77698 9.2197031e-39
3102.8601 -3500.3601 897.88599 9.2197031e-39
3104.27 -3451.5701 898.26398 9.2197031e-39
3094.5701 -3392.6499 895.664 9.2197031e-39
3091.1599 -3340.95 894.74902 9.2197031e-39
3091.3601 -3293.5801 894.80499 9.2197031e-39
3108.9399 -3263.1399 899.513 9.2197031e-39
3107.3999 -3215.3601 899.10199 9.2197031e-39
3081.6599 -1063.984 892.20599 9.2197031e-39
3120.5901 -3181.5901 902.63599 9.2197031e-39
3257.5 -654.31189 939.32202 9.2197031e-39
3294.5901 -682.48352 949.25897 9.2197031e-39
3322.1899 -3314.6899 956.65503 9.2197031e-39
3338.8101 -36.512024 961.10797 9.2197031e-39
3384.4099 -57.323975 973.32599 9.2197031e-39
3510.6001 25.25 1007.14 9.2197031e-39
3593.0901 -963.54999 1029.24 9.2197031e-39
3592.1799 -932.96802 1029 9.2197031e-39
3578.5 -901.297 1025.33 9.2197031e-39
3579.95 -871.15503 1025.72 9.2197031e-39
3566.6899 -839.96204 1022.17 9.2197031e-39
3659.1799 1275.54 1046.95 9.2197031e-39
3689.03 -3585.75 1054.95 9.2197031e-39
3707.0601 1106.11 1059.78 9.2197031e-39
3700.3701 1141.21 1057.99 9.2197031e-39
3694.2 1176.76 1056.33 9.2197031e-39
3676.51 1206.4301 1051.59 9.2197031e-39
3674.8601 1244.6899 1051.15 9.2197031e-39
3716.5801 -1008.663 1062.33 9.2197031e-39
3711.28 -819.04199 1060.91 9.2197031e-39
3741.21 970.67004 1068.9301 9.2197031e-39
3733.1399 1004.58 1066.77 9.2197031e-39
3728.27 1040.11 1065.46 9.2197031e-39
3712.5601 1070.61 1061.25 9.2197031e-39
3761.22 -790.39801 1074.29 9.2197031e-39
3765.5901 -758.81799 1075.46 9.2197031e-39
3747.21 935.95996 1070.54 9.2197031e-39
3823.98 782.62 1091.11 9.2197031e-39
3823.21 1407.41 1090.9 9.2197031e-39
3894.3201 270.56 1109.96 9.2197031e-39
3886.8501 303.43298 1107.95 9.2197031e-39
3874.4099 335.02802 1104.62 9.2197031e-39
3873.8701 369.72101 1104.48 9.2197031e-39
3865.02 687.94995 1102.1 9.2197031e-39
3873.51 839.20996 1104.38 9.2197031e-39
3925.25 139.19397 1118.24 9.2197031e-39
3902.78 203.37 1112.22 9.2197031e-39
3896.8101 236.539 1110.62 9.2197031e-39
3896.3501 410.95001 1110.5 9.2197031e-39
3902.5801 448.10999 1112.17 9.2197031e-39
3902.8899 483.81006 1112.25 9.2197031e-39
3899.55 663.51001 1111.36 9.2197031e-39
3925.05 897.89001 1118.1899 9.2197031e-39
3939 -97.473999 1121.9301 9.2197031e-39
3942.28 -63.070007 1122.8101 9.2197031e-39
3939.7 176.737 1122.12 9.2197031e-39
3937.6201 639.78003 1121.5601 9.2197031e-39
3984.78 618.45996 1134.2 9.2197031e-39
3977.77 997.69995 1132.3199 9.2197031e-39
4078.1799 1595.7 1159.22 9.2197031e-39
4052.8 1626.25 1152.42 9.2197031e-39
4266.4902 670.65002 1209.6801 9.2197031e-39
4241.8599 1068.87 1203.08 9.2197031e-39
4277.04 634.32996 1212.51 9.2197031e-39
4270.2798 1949.27 1210.7 9.2197031e-39
4391.6602 -3888.53 1243.22 9.2197031e-39
4447 -3872.6699 1258.05 9.2197031e-39
4517.9102 -3867.96 1277.05 9.2197031e-39
4497.1602 2199.8701 1271.49 9.2197031e-39
4562.3901 -1266.916 1288.96 9.2197031e-39
4564.9702 -1227.531 1289.66 9.2197031e-39
4567.9502 -3846.3401 1290.46 9.2197031e-39
4567.23 -1188.151 1290.26 9.2197031e-39
4567.23 -1148.5339 1290.26 9.2197031e-39
4575.48 2196.9099 1292.47 9.2197031e-39
4630.54 -3833.3501 1307.23 9.2197031e-39
4670.3301 -4370.6699 1317.89 9.2197031e-39
4699.5601 -3824.0701 1325.72 9.2197031e-39
4749.9902 -4370.8896 1339.23 9.2197031e-39
4780.1099 2216.74 1347.3 9.2197031e-39
4829.23 -4369.3301 1360.46 9.2197031e-39
4828.5801 2135.5 1360.29 9.2197031e-39
4901.9302 -4361.0703 1379.9399 9.2197031e-39
4873.6001 2218.3601 1372.35 9.2197031e-39
5526.5898 -4353.0098 1547.3199 9.2197031e-39
5607.54 -3610.3899 1569.01 9.2197031e-39
5619.6899 -4348.27 1572.27 9.2197031e-39
5638.1899 -4290.7998 1577.23 9.2197031e-39
5637.5 -4220.7598 1577.04 9.2197031e-39
5631.9702 -4148.3301 1575.5601 9.2197031e-39
5633.0098 -4081.04 1575.84 9.2197031e-39
5632.5 -4013.48 1575.7 9.2197031e-39
5627.1201 -3943.6299 1574.26 9.2197031e-39
5624.2998 -3876.1599 1573.5 9.2197031e-39
5617.4199 -3807 1571.66 9.2197031e-39
5613.1401 -3740.1799 1570.51 9.2197031e-39
5613.21 -3676.6001 1570.53 9.2197031e-39
5680.6899 -3402.1201 1588.61 9.2197031e-39
5684.02 -3222.3501 1589.5 9.2197031e-39
5680.4302 -3161.1399 1588.54 9.2197031e-39
5689.8501 -3593.3501 1591.0699 9.2197031e-39
5690.0298 -3530.72 1591.11 9.2197031e-39
5690.4199 -3468.77 1591.22 9.2197031e-39
5687.6001 -3344.6399 1590.46 9.2197031e-39
5686.1201 -3283.3701 1590.0699 9.2197031e-39
5691.2202 -3107.1201 1591.4301 9.2197031e-39
7247.4399 -3235.95 2008.42 9.2197031e-39
7236.2202 -852.49799 2005.41 9.2197031e-39
7268.52 -3758.49 2014.0699 9.2197031e-39
7261.98 -3680.52 2012.3199 9.2197031e-39
7263.5801 -3606.74 2012.75 9.2197031e-39
7258.21 -3530.55 2011.3101 9.2197031e-39
7258.3799 -3457.24 2011.35 9.2197031e-39
7256.9502 -3383.8 2010.97 9.2197031e-39
7257.5298 -3311.6499 2011.12 9.2197031e-39
7253.9102 -3166.97 2010.16 9.2197031e-39
7259.7598 -3098.0801 2011.72 9.2197031e-39
7428.9399 -3086.0801 2057.05 9.2197031e-39
7625.0898 -3080.1699 2109.6101 9.2197031e-39
7694.8701 551.57996 2128.3101 9.2197031e-39
7701.1001 621.43994 2129.98 9.2197031e-39
7775.7002 -2981.3701 2149.97 9.2197031e-39
7810.6099 -3067.29 2159.3201 9.2197031e-39
7801.04 -2915.01 2156.76 9.2197031e-39
7809.8501 -2550.8599 2159.1201 9.2197031e-39
7808.1602 -2478.0698 2158.6699 9.2197031e-39
7800.1802 -2404.1099 2156.53 9.2197031e-39
7800.9502 -2332.6001 2156.73 9.2197031e-39
7794.48 -2259.76 2155 9.2197031e-39
7793.04 -2188.3599 2154.6201 9.2197031e-39
7797.6099 -2118.46 2155.8401 9.2197031e-39
7792.0801 -2046.77 2154.3601 9.2197031e-39
7786.8599 -1975.47 2152.96 9.2197031e-39
7835.1201 -2851.1299 2165.8899 9.2197031e-39
7836.1201 -2777.46 2166.1599 9.2197031e-39
7823.3999 -2700.3201 2162.75 9.2197031e-39
7826.79 -2628.0801 2163.6599 9.2197031e-39
