# .PCD v0.7 - Point Cloud Data file format
VERSION 0.7
FIELDS x y z rgb
SIZE 4 4 4 4
TYPE F F F F
COUNT 1 1 1 1
WIDTH 319
HEIGHT 1
VIEWPOINT 0 0 0 1 0 0 0
POINTS 319
DATA ascii
254.55 -1205.4885 134.6835 9.2197031e-39
264.715 -1203.851 137.40701 9.2197031e-39
272.36099 -1203.6321 139.45599 9.2197031e-39
271.306 -762.77802 139.173 9.2197031e-39
272.702 -456.59302 139.547 9.2197031e-39
272.23102 -435.32849 139.42101 9.2197031e-39
252.00101 1302 134 9.2197031e-39
268.10101 1309.9301 138.314 9.2197031e-39
277.44901 -1203.425 140.819 9.2197031e-39
284.633 -1195.036 142.744 9.2197031e-39
291.215 -1180.582 144.508 9.2197031e-39
295.80399 -1176.218 145.737 9.2197031e-39
299.31299 -1159.8611 146.677 9.2197031e-39
299.49399 -1110.6379 146.726 9.2197031e-39
288.95401 -963.995 143.90199 9.2197031e-39
288.73999 -933.83997 143.845 9.2197031e-39
281.97101 -795.88599 142.03065 9.2197031e-39
277.27301 -786.16998 140.772 9.2197031e-39
284.03699 -788.09802 142.584 9.2197031e-39
274.44199 -776.47699 140.013 9.2197031e-39
283.88953 -773.89197 142.54449 9.2197031e-39
295.366 -761.89001 145.62 9.2197031e-39
305.73434 -766.26935 148.39799 9.2197031e-39
285.323 -752.46167 142.92885 9.2197031e-39
295.04181 -754.26001 145.533 9.2197031e-39
305.84601 -757.42102 148.42799 9.2197031e-39
293.534 -749.95703 145.129 9.2197031e-39
301.88501 -741.89398 147.367 9.2197031e-39
301.72601 -737.69098 147.32401 9.2197031e-39
311.465 -470.92999 149.93401 9.2197031e-39
309.367 -460.08301 149.37199 9.2197031e-39
310.4325 -468.77399 149.65701 9.2197031e-39
287.66199 -454.62799 143.55551 9.2197031e-39
294.18866 -450.95132 145.30434 9.2197031e-39
308.556 -458.646 149.15401 9.2197031e-39
277.03 -445.15302 140.707 9.2197031e-39
286.745 -446.15833 143.31 9.2197031e-39
294.51401 -446.54935 145.39166 9.2197031e-39
304.97598 -442.29102 148.19533 9.2197031e-39
311.34201 -447.94202 149.901 9.2197031e-39
278.6145 -435.29498 141.1315 9.2197031e-39
283.612 -431.65802 142.47 9.2197031e-39
307.34567 -436.77502 148.82967 9.2197031e-39
276.198 -421.75201 140.48399 9.2197031e-39
285.88348 -427.53802 143.07901 9.2197031e-39
284.13199 1305.71 142.61 9.2197031e-39
300.194 1305.35 146.914 9.2197031e-39
314.039 -454.00452 150.6235 9.2197031e-39
311.828 -442.759 150.03101 9.2197031e-39
313.26999 -434.75598 150.41701 9.2197031e-39
316.48901 1311.83 151.28 9.2197031e-39
332.60199 1311.1801 155.597 9.2197031e-39
349.11301 1318.37 160.021 9.2197031e-39
365.81 1326.4 164.495 9.2197031e-39
382.246 1328.29 168.899 9.2197031e-39
398.495 1327.04 173.25301 9.2197031e-39
415.57401 1335.61 177.83 9.2197031e-39
431.79099 1333.0601 182.175 9.2197031e-39
448.68399 1337.33 186.701 9.2197031e-39
465.991 1344.42 191.339 9.2197031e-39
1339.84 1069.6801 425.48599 9.2197031e-39
1356.61 1063.91 429.979 9.2197031e-39
1321.99 1073.61 420.70401 9.2197031e-39
1430.1 1078.71 449.67001 9.2197031e-39
1411.01 1754.9299 444.556 9.2197031e-39
1431.2 1848.54 449.966 9.2197031e-39
1426.1801 1892.3601 448.621 9.2197031e-39
1461.34 588.09998 458.04001 9.2197031e-39
1451.28 598.97998 455.345 9.2197031e-39
1441.8101 610.46997 452.80899 9.2197031e-39
1432.25 621.88 450.246 9.2197031e-39
1433.86 1053.53 450.67801 9.2197031e-39
1431.49 1696.55 450.043 9.2197031e-39
1463.71 1710.4099 458.67599 9.2197031e-39
1453.5699 1789.6101 455.95801 9.2197031e-39
1483.27 508.07996 463.918 9.2197031e-39
1502.11 505.35999 468.966 9.2197031e-39
1494.14 537.71997 466.82999 9.2197031e-39
1493.12 556.93005 466.556 9.2197031e-39
1484.03 568.77002 464.121 9.2197031e-39
1470.6 576.44995 460.522 9.2197031e-39
1469.75 1167.4399 460.29501 9.2197031e-39
1501.4 1733.48 468.77499 9.2197031e-39
1516.5601 498.52002 472.83801 9.2197031e-39
1532.48 492.78003 477.104 9.2197031e-39
1511.54 1069.01 471.49301 9.2197031e-39
1509.77 1096.98 471.01901 9.2197031e-39
1526.15 1639.3701 475.40601 9.2197031e-39
1511.98 1705.5701 471.61099 9.2197031e-39
1539.1 1707.96 478.87601 9.2197031e-39
1550.65 488.71997 481.97198 9.2197031e-39
1577.92 491.89001 489.27899 9.2197031e-39
1546.47 1630.3501 480.85101 9.2197031e-39
1574.8101 1634.77 488.44501 9.2197031e-39
1616.95 1618.1201 499.737 9.2197031e-39
1655.15 -3940.8501 509.97198 9.2197031e-39
1653.97 -3784.8601 509.65701 9.2197031e-39
1650.96 -3705.9199 508.85101 9.2197031e-39
1647.22 -3561.53 507.84698 9.2197031e-39
1622.0601 1060.73 501.108 9.2197031e-39
1625.84 1676.1599 502.11899 9.2197031e-39
1679.9 -4451.02 516.604 9.2197031e-39
1657.79 -4294.6899 510.67899 9.2197031e-39
1666.4399 -4224.3604 512.99902 9.2197031e-39
1663.67 -4128.2998 512.25598 9.2197031e-39
1657.13 -4027.04 510.50201 9.2197031e-39
1656.54 -3865.9199 510.345 9.2197031e-39
1667.8199 -3539.8601 513.367 9.2197031e-39
1659.54 882.84998 511.14899 9.2197031e-39
1670.33 1059.6899 514.04102 9.2197031e-39
1659.46 1076.21 511.12701 9.2197031e-39
1660.35 1482.28 511.366 9.2197031e-39
1717.84 -3781.6101 526.771 9.2197031e-39
1699.5601 -3541.21 521.87201 9.2197031e-39
1728.76 -3536.8899 529.69598 9.2197031e-39
1714.41 1052.24 525.85101 9.2197031e-39
1701.0699 1066.13 522.27802 9.2197031e-39
1766.15 -3548.1599 539.716 9.2197031e-39
1751.34 1064.5601 535.74597 9.2197031e-39
1788.1801 -3529.1001 545.61798 9.2197031e-39
1830.14 -3547.47 556.86102 9.2197031e-39
1854.45 -3532.23 563.37402 9.2197031e-39
1888.76 -3534.96 572.56897 9.2197031e-39
1921.28 -3533.8501 581.28302 9.2197031e-39
1955.4 -3534.9399 590.42499 9.2197031e-39
1989.16 -3534.79 599.47101 9.2197031e-39
2021 -3530.8501 608.00201 9.2197031e-39
2022.8101 -3170.1599 608.48798 9.2197031e-39
2025.11 -3126.5601 609.10199 9.2197031e-39
2057.5701 -3534.1599 617.802 9.2197031e-39
2034.47 -3285 611.612 9.2197031e-39
2054.3799 -3121.7 616.94598 9.2197031e-39
2029.58 -2998.3101 610.30103 9.2197031e-39
2046.16 -2977.4299 614.74402 9.2197031e-39
2092.23 -3533.6699 627.08899 9.2197031e-39
2068.54 -2964.26 620.73901 9.2197031e-39
2085.3601 -2943.8701 625.24597 9.2197031e-39
2127.02 -3532.78 636.40997 9.2197031e-39
2112.24 -3455.2 632.44897 9.2197031e-39
2118 -3163.6201 633.99298 9.2197031e-39
2108.73 -2931.8501 631.50897 9.2197031e-39
2140.1101 -2929.54 639.91803 9.2197031e-39
2167.2 -2921.52 647.177 9.2197031e-39
2174.03 -2889.03 649.005 9.2197031e-39
2168.27 -443.866 647.46198 9.2197031e-39
2152.4399 -427.867 643.22198 9.2197031e-39
2150.9199 -410.70502 642.81403 9.2197031e-39
2149.25 -393.556 642.367 9.2197031e-39
2152.24 -375.858 643.16699 9.2197031e-39
2164.6599 -356.871 646.495 9.2197031e-39
2196.45 -2875.3301 655.013 9.2197031e-39
2202.27 -458.81299 656.573 9.2197031e-39
2221.03 -3511.27 661.59998 9.2197031e-39
2223.3101 -2866.5901 662.21002 9.2197031e-39
2241.95 -473.996 667.20599 9.2197031e-39
2286.0601 -2898.0901 679.02502 9.2197031e-39
2289.54 -2862.0801 679.95801 9.2197031e-39
2313.1899 -2848.6599 686.29401 9.2197031e-39
2321.9399 -506.4364 688.638 9.2197031e-39
2290.2 -489.414 680.13501 9.2197031e-39
2340.79 -2839.3 693.68903 9.2197031e-39
2353.54 -524.0238 697.10602 9.2197031e-39
2396.99 -561.23822 708.74902 9.2197031e-39
2384.03 -542.20129 705.276 9.2197031e-39
2402.9099 -2866 710.33502 9.2197031e-39
2430.1599 -600 717.63702 9.2197031e-39
2410.76 -580.49622 712.43799 9.2197031e-39
2447.47 -619.83539 722.27301 9.2197031e-39
2488.8701 -2915.77 733.367 9.2197031e-39
2513.1201 -2900.3799 739.86603 9.2197031e-39
2539.47 1217.15 746.92499 9.2197031e-39
2530.9099 1243.29 744.633 9.2197031e-39
2662.1499 1246.33 779.79797 9.2197031e-39
2627.98 1253.59 770.64203 9.2197031e-39
2686.22 1230.95 786.24701 9.2197031e-39
2723.5901 331.32098 796.26202 9.2197031e-39
2760.3301 -3107.72 806.10602 9.2197031e-39
2751.1001 1245.47 803.63202 9.2197031e-39
2806.9099 1252.08 818.58698 9.2197031e-39
2869.3999 1262.34 835.32898 9.2197031e-39
2930.76 382.05902 851.77002 9.2197031e-39
2938.6499 1276.09 853.88501 9.2197031e-39
2990.6001 1276.59 867.80701 9.2197031e-39
3069.0701 -1088.046 888.83197 9.2197031e-39
3064.6499 1290.99 887.646 9.2197031e-39
3095.97 -3394.03 896.039 9.2197031e-39
3093.98 -3343.6799 895.50702 9.2197031e-39
3098.49 -3300.3301 896.71301 9.2197031e-39
3109.6499 -3263.8101 899.70599 9.2197031e-39
3109.5701 -3217.3501 899.68402 9.2197031e-39
3081.6599 -1063.984 892.20599 9.2197031e-39
3122.05 -3182.8999 903.02698 9.2197031e-39
3254.6101 -654.25952 938.54602 9.2197031e-39
3317.05 -3310.1499 955.27802 9.2197031e-39
3302.3101 -682.69299 951.32898 9.2197031e-39
3348.3201 -34.775024 963.65698 9.2197031e-39
3388.22 -56.663025 974.34698 9.2197031e-39
3520.0901 27.072021 1009.68 9.2197031e-39
3595.01 -963.75903 1029.76 9.2197031e-39
3589.0801 -902.25598 1028.17 9.2197031e-39
3581.8701 -871.31104 1026.24 9.2197031e-39
3566.6899 -839.96204 1022.17 9.2197031e-39
3596.02 -933.35101 1030.03 9.2197031e-39
3660.8899 1276.48 1047.41 9.2197031e-39
3695.6899 -3591.53 1056.73 9.2197031e-39
3706.46 -818.737 1059.62 9.2197031e-39
3701.23 1141.65 1058.22 9.2197031e-39
3695.0701 1177.21 1056.5699 9.2197031e-39
3685.98 1211.42 1054.13 9.2197031e-39
3670.5801 1242.38 1050.01 9.2197031e-39
3719.46 -1009.003 1063.1 9.2197031e-39
3742.1001 971.06995 1069.17 9.2197031e-39
3735.78 1005.8 1067.48 9.2197031e-39
3721.24 1036.79 1063.58 9.2197031e-39
3714.3101 1071.45 1061.72 9.2197031e-39
3707.9399 1106.55 1060.01 9.2197031e-39
3774.73 -791.13098 1077.91 9.2197031e-39
3773.3101 -759.16699 1077.53 9.2197031e-39
3748.1001 936.34998 1070.78 9.2197031e-39
3814.9299 779.12 1088.6801 9.2197031e-39
3827.45 1409.79 1092.04 9.2197031e-39
3893.4199 305.06702 1109.72 9.2197031e-39
3885.6599 337.93103 1107.63 9.2197031e-39
3882.29 371.97498 1106.73 9.2197031e-39
3866.8401 688.59998 1102.59 9.2197031e-39
3879.8201 841.70996 1106.0699 9.2197031e-39
3931.3401 -98.519012 1119.88 9.2197031e-39
3925.25 139.19397 1118.24 9.2197031e-39
3905.6101 203.99402 1112.98 9.2197031e-39
3899.6399 237.18799 1111.38 9.2197031e-39
3896.21 271.01001 1110.46 9.2197031e-39
3894.48 410.42999 1110 9.2197031e-39
3905.3701 448.91003 1112.92 9.2197031e-39
3903.8201 484.07996 1112.5 9.2197031e-39
3901.3899 664.14001 1111.85 9.2197031e-39
3923.25 897.16003 1117.71 9.2197031e-39
3935.5801 -64.044983 1121.01 9.2197031e-39
3932.1299 175.14203 1120.09 9.2197031e-39
3948.6499 643.47998 1124.51 9.2197031e-39
3985.7 618.76001 1134.4399 9.2197031e-39
3978.6599 998.08997 1132.55 9.2197031e-39
4071.4199 1591.8201 1157.41 9.2197031e-39
4053.6399 1626.74 1152.65 9.2197031e-39
4243.6499 1069.62 1203.5601 9.2197031e-39
4270.5601 632.33997 1210.77 9.2197031e-39
4268.3301 671.22998 1210.17 9.2197031e-39
4272.75 1950.8401 1211.36 9.2197031e-39
4401.6299 -3896.4399 1245.89 9.2197031e-39
4456.25 -3879.8899 1260.53 9.2197031e-39
4525.6699 -3873.8999 1279.13 9.2197031e-39
4492.27 2196.6399 1270.1801 9.2197031e-39
4555.7002 -1265.881 1287.17 9.2197031e-39
4577.3301 -3853.3899 1292.97 9.2197031e-39
4566.8901 -1227.8101 1290.17 9.2197031e-39
4569.1401 -1188.412 1290.77 9.2197031e-39
4568.1802 -1148.656 1290.52 9.2197031e-39
4584.4902 2202.74 1294.89 9.2197031e-39
4633.6802 -3835.6799 1308.0699 9.2197031e-39
4671.0801 -4371.3101 1318.09 9.2197031e-39
4694.8101 -3820.6299 1324.45 9.2197031e-39
4750.7402 -4371.52 1339.4301 9.2197031e-39
4782.6001 2218.29 1347.97 9.2197031e-39
4831.4902 -4371.1899 1361.0699 9.2197031e-39
4830.25 2136.5 1360.74 9.2197031e-39
4896.6001 -4356.77 1378.52 9.2197031e-39
4875.2598 2219.3701 1372.8 9.2197031e-39
5528.98 -4354.71 1547.96 9.2197031e-39
5610.7202 -3803 1569.87 9.2197031e-39
5606.4102 -3736.24 1568.71 9.2197031e-39
5600.7402 -3606.5801 1567.1899 9.2197031e-39
5620.4902 -4348.8301 1572.48 9.2197031e-39
5640.6099 -4292.46 1577.87 9.2197031e-39
5632.6401 -4217.4902 1575.74 9.2197031e-39
5633.6001 -4149.3999 1576 9.2197031e-39
5633.8301 -4081.5701 1576.0601 9.2197031e-39
5628.3799 -4010.8701 1574.6 9.2197031e-39
5629.6001 -3945.1699 1574.92 9.2197031e-39
5620.1401 -3873.6201 1572.39 9.2197031e-39
5615.75 -3678.0601 1571.21 9.2197031e-39
5683.2798 -3403.46 1589.3101 9.2197031e-39
5681.5298 -3341.5701 1588.84 9.2197031e-39
5679.1499 -3279.9299 1588.2 9.2197031e-39
5684.8901 -3222.77 1589.74 9.2197031e-39
5682.1899 -3161.97 1589.01 9.2197031e-39
5691.5498 -3594.29 1591.52 9.2197031e-39
5691.7402 -3531.6399 1591.5699 9.2197031e-39
5692.1499 -3469.6699 1591.6801 9.2197031e-39
5694.75 -3108.75 1592.38 9.2197031e-39
7252.1001 -3309.55 2009.67 9.2197031e-39
7246.8398 -852.88202 2008.26 9.2197031e-39
7262.3198 -3755.7 2012.41 9.2197031e-39
7263.75 -3681.3 2012.79 9.2197031e-39
7266.2598 -3607.8899 2013.46 9.2197031e-39
7260.8901 -3531.6699 2012.03 9.2197031e-39
7260.1802 -3457.98 2011.83 9.2197031e-39
7259.6499 -3384.8799 2011.6899 9.2197031e-39
7258.3301 -3240.05 2011.34 9.2197031e-39
7256.6401 -3167.98 2010.89 9.2197031e-39
7260.6699 -3098.4099 2011.97 9.2197031e-39
7425.2798 -3084.8101 2056.0701 9.2197031e-39
7623.25 -3079.55 2109.1201 9.2197031e-39
7697.73 552.03003 2129.0801 9.2197031e-39
7694.4199 620.33997 2128.1899 9.2197031e-39
7773.8501 -2980.78 2149.47 9.2197031e-39
7809.6899 -3066.99 2159.0801 9.2197031e-39
7790.8501 -2911.8799 2154.03 9.2197031e-39
7811.73 -2551.3398 2159.6201 9.2197031e-39
7810.04 -2478.53 2159.1699 9.2197031e-39
7806.77 -2405.6802 2158.29 9.2197031e-39
7800.9502 -2332.6001 2156.73 9.2197031e-39
7801.1001 -2261.21 2156.77 9.2197031e-39
7796.8301 -2189.1602 2155.6299 9.2197031e-39
7801.3999 -2119.22 2156.8601 9.2197031e-39
7792.0801 -2046.77 2154.3601 9.2197031e-39
7791.6201 -1976.33 2154.23 9.2197031e-39
7825.8398 -2848.3701 2163.3999 9.2197031e-39
7831.4702 -2776.1201 2164.9099 9.2197031e-39
7829 -2701.8701 2164.25 9.2197031e-39
7822.1099 -2626.8301 2162.3999 9.2197031e-39
