# .PCD v0.7 - Point Cloud Data file format
VERSION 0.7
FIELDS x y z rgb
SIZE 4 4 4 4
TYPE F F F F
COUNT 1 1 1 1
WIDTH 298
HEIGHT 1
VIEWPOINT 0 0 0 1 0 0 0
POINTS 298
DATA ascii
119.741 -7701 32.352402 9.2197031e-39
146.18401 -872.84497 39.437801 9.2197031e-39
145.70433 -863.46198 39.309265 9.2197031e-39
144.422 -856.89551 38.965752 9.2197031e-39
134.6805 -844.81836 36.355453 9.2197031e-39
147.571 -848.22601 39.809502 9.2197031e-39
128.5175 -838.70154 34.704147 9.2197031e-39
132.702 -839.35498 35.825298 9.2197031e-39
148.05701 -837.91901 39.9398 9.2197031e-39
136.679 -575.22601 36.890999 9.2197031e-39
137.42401 -556.16199 37.090652 9.2197031e-39
141.99733 -554.48334 38.315968 9.2197031e-39
146.646 -546.00049 39.5616 9.2197031e-39
119.741 1165 32.352402 9.2197031e-39
135.545 1174.9301 36.5872 9.2197031e-39
178.76199 -7701.73 48.167 9.2197031e-39
169.345 -855.75049 45.643852 9.2197031e-39
148.627 -846.98901 40.0924 9.2197031e-39
157.30925 -843.82153 42.418823 9.2197031e-39
165.2468 -845.9538 44.545677 9.2197031e-39
149.42799 -838.63403 40.306999 9.2197031e-39
152.071 -837.64728 41.01527 9.2197031e-39
165.33099 -829.67798 44.568298 9.2197031e-39
152.44901 -571.38397 41.116447 9.2197031e-39
172.9465 -576.20703 46.608849 9.2197031e-39
155.4342 -563.12958 41.916401 9.2197031e-39
175.42401 -563.43103 47.272701 9.2197031e-39
150.95766 -554.20929 40.716869 9.2197031e-39
166.39519 -554.00195 44.853321 9.2197031e-39
172.56799 -555.51801 46.507248 9.2197031e-39
183.015 -559.52197 49.306499 9.2197031e-39
169.28999 -542.125 45.629002 9.2197031e-39
176.89099 -543.83398 47.665649 9.2197031e-39
150.8335 -538.172 40.683651 9.2197031e-39
151.433 1179.71 40.844398 9.2197031e-39
167.327 1181.36 45.1031 9.2197031e-39
183.25101 1182.85 49.3699 9.2197031e-39
189.60201 -548.36597 51.071701 9.2197031e-39
199.119 1182.21 53.621799 9.2197031e-39
215.437 1190.41 57.994099 9.2197031e-39
238.065 -7717.9302 64.057297 9.2197031e-39
230.71899 1178.49 62.088902 9.2197031e-39
247.82899 1196.37 66.673599 9.2197031e-39
263.80899 1195.14 70.955399 9.2197031e-39
280.19901 1198.75 75.347099 9.2197031e-39
296.56799 1201.21 79.7332 9.2197031e-39
302.37399 -7920.52 81.288803 9.2197031e-39
313.496 1208.49 84.268898 9.2197031e-39
329.79401 1208.65 88.636002 9.2197031e-39
363.23001 -7918.6001 97.5952 9.2197031e-39
424.48901 -7926.1201 114.009 9.2197031e-39
417.233 -108.36401 112.065 9.2197031e-39
426.74301 -102.24402 114.613 9.2197031e-39
430.84799 -106.79797 115.713 9.2197031e-39
445.55701 -103.80603 119.655 9.2197031e-39
447.54401 -87.765991 120.187 9.2197031e-39
555.04901 -123.17603 148.993 9.2197031e-39
547.00299 -113.00299 146.83701 9.2197031e-39
550.758 -118.47198 147.843 9.2197031e-39
542.61298 -108.36102 145.661 9.2197031e-39
586.37549 -168.16248 157.38651 9.2197031e-39
569.52802 -154.789 152.873 9.2197031e-39
577.909 -154.34497 155.118 9.2197031e-39
586.97101 -153.26202 157.54601 9.2197031e-39
572.987 -140.78802 153.799 9.2197031e-39
565.31403 -130.35199 151.743 9.2197031e-39
571.328 -132.85602 153.355 9.2197031e-39
561.09698 -125.56598 150.61301 9.2197031e-39
560.32001 -72.203003 150.405 9.2197031e-39
630.35602 -215.60199 169.17101 9.2197031e-39
630.492 -206.91501 169.20799 9.2197031e-39
608.09497 -194.41901 163.20599 9.2197031e-39
618.53802 -192.54199 166.005 9.2197031e-39
624.56848 -199.70601 167.6205 9.2197031e-39
609.23102 -184.32001 163.511 9.2197031e-39
599.79797 -176.28003 160.983 9.2197031e-39
604.86499 -179.91699 162.341 9.2197031e-39
601.953 -164.64899 161.561 9.2197031e-39
634.104 -228.87701 170.175 9.2197031e-39
636.573 -218.22601 170.83701 9.2197031e-39
673.776 -201.39499 180.806 9.2197031e-39
1206.84 937.54004 323.64001 9.2197031e-39
1255.41 1658.1499 336.65399 9.2197031e-39
1249.04 1697.0801 334.94699 9.2197031e-39
1280.51 1658.49 343.37799 9.2197031e-39
1321.84 1455.54 354.453 9.2197031e-39
1366.92 1491.98 366.534 9.2197031e-39
1448.54 1501.53 388.40201 9.2197031e-39
1421.17 1542.3501 381.069 9.2197031e-39
1453.14 1552.6799 389.63699 9.2197031e-39
1478.84 1272.6 396.522 9.2197031e-39
1473.27 1499.5601 395.03 9.2197031e-39
1519.71 -3880.3101 407.47198 9.2197031e-39
1501.61 1461.4299 402.62399 9.2197031e-39
1522.8 1536.73 408.29999 9.2197031e-39
1548.33 -4552.8896 415.142 9.2197031e-39
1552.08 -4464.4697 416.146 9.2197031e-39
1555.17 -4378.1396 416.974 9.2197031e-39
1550.26 -4275.4102 415.659 9.2197031e-39
1541.09 -4166.6201 413.203 9.2197031e-39
1540.6 -4083.03 413.07101 9.2197031e-39
1538.03 -3997.8999 412.38101 9.2197031e-39
1535.85 -3843.98 411.797 9.2197031e-39
1536.51 -3775.1101 411.97501 9.2197031e-39
1539.4301 -3647.9099 412.758 9.2197031e-39
1572.12 -3651.01 421.517 9.2197031e-39
1601.85 -3647.54 429.48199 9.2197031e-39
1612.77 -3869.1499 432.40799 9.2197031e-39
1632.08 -3644.6299 437.582 9.2197031e-39
1659.61 -3636.1299 444.95801 9.2197031e-39
1645.23 556.22998 441.10599 9.2197031e-39
1677.0699 559.64001 449.638 9.2197031e-39
1690.39 -3633.47 453.20499 9.2197031e-39
1711.1899 541.54004 458.77899 9.2197031e-39
1694.53 551 454.31601 9.2197031e-39
1705.9 629.75 457.36099 9.2197031e-39
1726.47 -3640.0601 462.87399 9.2197031e-39
1733.64 -3086.1899 464.79401 9.2197031e-39
1749.2 -3065.01 468.965 9.2197031e-39
1745.23 -3016.22 467.89999 9.2197031e-39
1720.8101 526.52002 461.358 9.2197031e-39
1755.05 -3632.3601 470.53299 9.2197031e-39
1768.72 -3183.9199 474.19501 9.2197031e-39
1753.77 -2986.1699 470.19 9.2197031e-39
1779.38 -2980.1001 477.04999 9.2197031e-39
1781.1 549.63 477.513 9.2197031e-39
1791.47 -3638.1599 480.29199 9.2197031e-39
1821.65 -3632.3701 488.37701 9.2197031e-39
1802.0601 -2969.78 483.129 9.2197031e-39
1821.72 -2955.29 488.397 9.2197031e-39
1805.73 545.03003 484.11099 9.2197031e-39
1854.88 -3631.3799 497.28201 9.2197031e-39
1833.45 -2930.4299 491.54001 9.2197031e-39
1862.52 -2928.0801 499.32901 9.2197031e-39
1835.9399 544.08997 492.207 9.2197031e-39
1893.35 -3638.49 507.58801 9.2197031e-39
1876.61 550.06006 503.104 9.2197031e-39
1933.62 -3647.6499 518.37903 9.2197031e-39
1918.1 -2958.55 514.22198 9.2197031e-39
1933.53 566.56995 518.35498 9.2197031e-39
1967.86 -3646.25 527.55499 9.2197031e-39
1966.87 -2978.98 527.28998 9.2197031e-39
1952.14 -2921.1499 523.34198 9.2197031e-39
1972.0601 -2906.02 528.67902 9.2197031e-39
2001.16 -3642.78 536.47601 9.2197031e-39
1985.46 -2883.21 532.271 9.2197031e-39
1983.11 -2842.49 531.64099 9.2197031e-39
1980.22 -2801.98 530.86603 9.2197031e-39
1995.23 -2782.1599 534.888 9.2197031e-39
2010.05 -2762.24 538.85901 9.2197031e-39
2042.64 -3651.3701 547.59003 9.2197031e-39
2022.66 -2740.05 542.23901 9.2197031e-39
2038.4301 -2721.3501 546.46399 9.2197031e-39
2041.7 -313.23001 547.34003 9.2197031e-39
2042.09 592.43005 547.44501 9.2197031e-39
2017.4301 600.35999 540.83698 9.2197031e-39
2087.5 -2737.1699 559.612 9.2197031e-39
2087.98 -359.01199 559.73901 9.2197031e-39
2072.6599 -343.5 555.63501 9.2197031e-39
2056.28 -328.422 551.24701 9.2197031e-39
2052.5601 -292.89099 550.25098 9.2197031e-39
2066.0701 -271.702 553.86798 9.2197031e-39
2080.3 -250.022 557.68201 9.2197031e-39
2083.02 -230.75201 558.41101 9.2197031e-39
2066.55 961.43994 553.99799 9.2197031e-39
2117.49 -372.42599 567.64697 9.2197031e-39
2095.8999 -208.83099 561.86102 9.2197031e-39
2110.4299 -186.15802 565.75403 9.2197031e-39
2123.79 -163.43597 569.33502 9.2197031e-39
2132.8401 -2748.0601 571.76202 9.2197031e-39
2143.1001 -386.94 574.51001 9.2197031e-39
2133.1799 -141.46899 571.85199 9.2197031e-39
2200.74 -416.367 589.95398 9.2197031e-39
2172.4399 -401.33499 582.37201 9.2197031e-39
2204.23 -2783.98 590.88898 9.2197031e-39
2257.78 -86.153015 605.23798 9.2197031e-39
2980.0901 -3461.4099 798.78003 9.2197031e-39
2975.48 -3409.1201 797.54602 9.2197031e-39
2989.6399 -3519.5 801.33801 9.2197031e-39
2987.4399 -3373.1799 800.75098 9.2197031e-39
2995.3999 -3333.9099 802.88202 9.2197031e-39
2990.52 -3283.5601 801.57397 9.2197031e-39
3084.8999 -3321.8201 826.86401 9.2197031e-39
3107.3501 -700 832.87903 9.2197031e-39
3179.6799 -727.64569 852.26001 9.2197031e-39
3201.8899 -672.15363 858.21198 9.2197031e-39
3194.78 -644.43152 856.30603 9.2197031e-39
3272.4099 -614.53229 877.10699 9.2197031e-39
3469.1499 -1095.079 929.82397 9.2197031e-39
3466.5901 -1064.177 929.138 9.2197031e-39
3466.6499 -1033.639 929.15302 9.2197031e-39
3461.6399 -1002.692 927.81 9.2197031e-39
3458.28 -972.01801 926.91199 9.2197031e-39
3514.4099 -945.75201 941.95001 9.2197031e-39
3557.51 -3686.3899 953.5 9.2197031e-39
3567.49 1118.6899 956.17401 9.2197031e-39
3563.1699 1155.77 955.01501 9.2197031e-39
3602.1599 -920.50702 965.46301 9.2197031e-39
3590.6799 -353.99701 962.38702 9.2197031e-39
3611.8301 947.57996 968.05402 9.2197031e-39
3607.4399 983.70996 966.87799 9.2197031e-39
3600.0901 1018.6 964.90802 9.2197031e-39
3592.4099 1053.48 962.85199 9.2197031e-39
3585.28 1088.8101 960.94098 9.2197031e-39
3651.8601 814.66003 978.78003 9.2197031e-39
3638.0701 846.12 975.08398 9.2197031e-39
3630.21 880.23999 972.97998 9.2197031e-39
3626.47 916.37 971.97601 9.2197031e-39
3634.3799 1234.6899 974.09802 9.2197031e-39
3709.99 -894.79401 994.35602 9.2197031e-39
3724.54 585.02002 998.255 9.2197031e-39
3706.29 614.87 993.36401 9.2197031e-39
3723.2 657.81995 997.89697 9.2197031e-39
3727.9099 696.63 999.15698 9.2197031e-39
3760.8799 561.29004 1007.99 9.2197031e-39
3802.6101 538.84998 1019.17 9.2197031e-39
3780.02 754.62 1013.12 9.2197031e-39
3769.27 826.52002 1010.24 9.2197031e-39
3821.0701 -297.25201 1024.12 9.2197031e-39
3824.26 -229.09698 1024.97 9.2197031e-39
3836.8601 513.34998 1028.35 9.2197031e-39
3843.4399 -260.772 1030.11 9.2197031e-39
3880.2 490.25 1039.96 9.2197031e-39
3947.6101 1496.6699 1058.03 9.2197031e-39
3986.96 -3201.75 1068.5699 9.2197031e-39
3977.4199 -3147.3799 1066.01 9.2197031e-39
3977.02 1468.21 1065.91 9.2197031e-39
4000.3899 -3113.98 1072.17 9.2197031e-39
4061.3701 -3103.7 1088.51 9.2197031e-39
4087.3401 -3071.5 1095.47 9.2197031e-39
4146.6899 -3058.71 1111.37 9.2197031e-39
4160.98 1667.0801 1115.2 9.2197031e-39
4141.9702 1802.05 1110.11 9.2197031e-39
4304.71 -3964.8501 1153.71 9.2197031e-39
4331.5 2077.8401 1160.89 9.2197031e-39
4369.3398 -3955.47 1171.03 9.2197031e-39
4436.4199 -4129.1499 1189 9.2197031e-39
4437.25 -3947.51 1189.23 9.2197031e-39
4420.29 2082.0801 1184.6801 9.2197031e-39
4461.2598 -3191.4399 1195.66 9.2197031e-39
4507.71 -3940.3201 1208.11 9.2197031e-39
4489.6899 2072.3799 1203.28 9.2197031e-39
4545.52 -4477.0303 1218.24 9.2197031e-39
4572.0498 -3927.51 1225.34 9.2197031e-39
4625.98 -4477.8101 1239.8 9.2197031e-39
4706.79 -4477.4199 1261.45 9.2197031e-39
4708.8799 2098.5701 1262.01 9.2197031e-39
4747.3501 2066 1272.3199 9.2197031e-39
4786.4102 -4474.6201 1282.78 9.2197031e-39
5408.6602 -4463.2002 1449.51 9.2197031e-39
5475.2798 -3710.3899 1467.36 9.2197031e-39
5493.0298 -4452.1797 1472.12 9.2197031e-39
5515.6001 -4397.4297 1478.17 9.2197031e-39
5514.1499 -4326.75 1477.78 9.2197031e-39
5513.5601 -4257.46 1477.62 9.2197031e-39
5559.6401 -3326.1499 1489.97 9.2197031e-39
5572.9399 -3701.8 1493.53 9.2197031e-39
5566.3301 -3635.3401 1491.76 9.2197031e-39
5565.9102 -3572.8501 1491.65 9.2197031e-39
5564.8501 -3510.6001 1491.36 9.2197031e-39
5564.02 -3449.03 1491.14 9.2197031e-39
5561.71 -3387.25 1490.52 9.2197031e-39
5564.8701 -3269.02 1491.37 9.2197031e-39
5595.1401 -3223.8 1499.48 9.2197031e-39
5768.1602 1603.46 1545.84 9.2197031e-39
6731.46 -819.479 1803.96 9.2197031e-39
6877.9399 -883.21204 1843.21 9.2197031e-39
6894.1299 1311.05 1847.54 9.2197031e-39
6901 1379.5601 1849.39 9.2197031e-39
7121.6499 -3410.25 1908.51 9.2197031e-39
7126.98 -3340.3999 1909.9399 9.2197031e-39
7126.21 -3268.6399 1909.73 9.2197031e-39
7125.6699 -3197.4299 1909.59 9.2197031e-39
7117.9702 -1016.328 1907.52 9.2197031e-39
7125.1899 -953.26599 1909.46 9.2197031e-39
7120.3701 -446.909 1908.16 9.2197031e-39
7117.9702 -383.672 1907.52 9.2197031e-39
7136.2598 -3858.49 1912.42 9.2197031e-39
7133.27 -3782.0901 1911.62 9.2197031e-39
7136.6802 -3709.04 1912.53 9.2197031e-39
7137.5898 -3635.4199 1912.78 9.2197031e-39
7129.71 -3558.71 1910.67 9.2197031e-39
7129.1899 -3485.5901 1910.53 9.2197031e-39
7149.0601 -1852.61 1915.85 9.2197031e-39
7146.0898 -1787.14 1915.0601 9.2197031e-39
7150.2002 -1722.9199 1916.16 9.2197031e-39
7155.6899 -1658.9761 1917.63 9.2197031e-39
7150.0801 -1593.668 1916.12 9.2197031e-39
7352.5601 -3205.4399 1970.38 9.2197031e-39
7538.7598 -3195.6201 2020.27 9.2197031e-39
7569.3599 -295.80899 2028.47 9.2197031e-39
7567.6001 -228.39999 2028 9.2197031e-39
7571.0498 -160.573 2028.92 9.2197031e-39
7574.8901 -92.570007 2029.95 9.2197031e-39
7717.04 -3179.9199 2068.04 9.2197031e-39
7704.3999 -3100.6599 2064.6599 9.2197031e-39
8072.5801 -3138.8401 2163.3101 9.2197031e-39
8431.7402 -3167.51 2259.55 9.2197031e-39
