# .PCD v0.7 - Point Cloud Data file format
VERSION 0.7
FIELDS x y z rgb
SIZE 4 4 4 4
TYPE F F F F
COUNT 1 1 1 1
WIDTH 315
HEIGHT 1
VIEWPOINT 0 0 0 1 0 0 0
POINTS 315
DATA ascii
254.5795 -1212.4885 134.69101 9.2197031e-39
265.01801 -1217.8475 137.48801 9.2197031e-39
272.901 -1219.6221 139.60001 9.2197031e-39
272.483 -772.703 139.48801 9.2197031e-39
273.181 -766.56299 139.67599 9.2197031e-39
271.72131 -445.00937 139.28401 9.2197031e-39
252.00101 1304 134 9.2197031e-39
268.04999 1303.9301 138.30099 9.2197031e-39
278.207 -1221.408 141.022 9.2197031e-39
288.14801 -1211.8569 143.686 9.2197031e-39
282.58499 -1204.171 142.19501 9.2197031e-39
294.05701 -1185.8785 145.26901 9.2197031e-39
299.48099 -1161.854 146.72301 9.2197031e-39
300.42001 -1120.592 146.974 9.2197031e-39
289.96399 -973.94 144.172 9.2197031e-39
290.81799 -952.71802 144.401 9.2197031e-39
282.11398 -796.87531 142.06902 9.2197031e-39
276.87 -783.20001 140.664 9.2197031e-39
283.366 -784.159 142.40401 9.2197031e-39
283.86099 -777.96899 142.537 9.2197031e-39
304.573 -772.62299 148.08701 9.2197031e-39
283.8465 -765.75098 142.53299 9.2197031e-39
295.33801 -763.18024 145.61224 9.2197031e-39
304.81549 -767.01276 148.15176 9.2197031e-39
286.633 -755.30261 143.2796 9.2197031e-39
295.13199 -755.724 145.55701 9.2197031e-39
302.944 -748.93701 147.651 9.2197031e-39
300.13452 -735.10101 146.89749 9.2197031e-39
306.5965 -477.4035 148.629 9.2197031e-39
307.97534 -466.724 148.99867 9.2197031e-39
286.34366 -451.87769 143.20233 9.2197031e-39
290.73901 -452.86951 144.38 9.2197031e-39
308.92499 -457.72302 149.25301 9.2197031e-39
276.84534 -446.15134 140.657 9.2197031e-39
295.86679 -444.73102 145.754 9.2197031e-39
304.371 -442.59198 148.033 9.2197031e-39
311.23499 -446.28302 149.87201 9.2197031e-39
278.13599 -438.25351 141.00351 9.2197031e-39
286.26266 -433.0647 143.18066 9.2197031e-39
305.461 -439.26199 148.325 9.2197031e-39
311.198 -436.082 149.862 9.2197031e-39
284.254 -428.215 142.642 9.2197031e-39
284.19901 1309.71 142.62801 9.2197031e-39
300.245 1307.35 146.927 9.2197031e-39
313.129 -467.32001 150.379 9.2197031e-39
311.88501 -438.491 150.04601 9.2197031e-39
316.59 1314.83 151.30701 9.2197031e-39
332.686 1313.1801 155.62 9.2197031e-39
364.74799 1308.4301 164.211 9.2197031e-39
349.16299 1319.37 160.035 9.2197031e-39
382.17801 1327.29 168.881 9.2197031e-39
398.57001 1328.04 173.27299 9.2197031e-39
414.81699 1326.64 177.627 9.2197031e-39
432.80899 1344.01 182.448 9.2197031e-39
448.987 1340.3101 186.783 9.2197031e-39
1317.73 1066.9399 419.561 9.2197031e-39
1328.5 1052.27 422.44601 9.2197031e-39
1365.36 1077.1 432.32401 9.2197031e-39
1414.77 1056.87 445.56201 9.2197031e-39
1411.45 1755.8201 444.67401 9.2197031e-39
1430.77 1847.6499 449.85001 9.2197031e-39
1426.61 1893.25 448.73499 9.2197031e-39
1462.74 589.47998 458.41599 9.2197031e-39
1451.97 599.67004 455.53101 9.2197031e-39
1441.8101 610.46997 452.80899 9.2197031e-39
1433.61 623.29004 450.612 9.2197031e-39
1436.16 1056.75 451.29401 9.2197031e-39
1436.48 1706.26 451.379 9.2197031e-39
1461.86 1706.8899 458.18201 9.2197031e-39
1451.34 1785.1699 455.36099 9.2197031e-39
1484 508.73999 464.11301 9.2197031e-39
1504.3199 507.31006 469.55701 9.2197031e-39
1494.14 537.71997 466.82999 9.2197031e-39
1493.83 557.59998 466.74799 9.2197031e-39
1484.74 569.44995 464.31201 9.2197031e-39
1472.01 577.81006 460.901 9.2197031e-39
1470.3101 1168.26 460.44501 9.2197031e-39
1518.04 499.81006 473.23499 9.2197031e-39
1533.97 494.05005 477.50299 9.2197031e-39
1508.5699 1065.0699 470.69601 9.2197031e-39
1516.24 1105.71 472.75201 9.2197031e-39
1542.49 1623.49 479.785 9.2197031e-39
1526.64 1640.24 475.53799 9.2197031e-39
1511.98 1705.5701 471.61099 9.2197031e-39
1535.23 1701.03 477.841 9.2197031e-39
1508.89 1747.48 470.78299 9.2197031e-39
1545.4 484.31995 480.564 9.2197031e-39
1571.87 486.91003 487.659 9.2197031e-39
1565.6 1049.73 485.97699 9.2197031e-39
1570.77 1627.95 487.36301 9.2197031e-39
1602.42 1594.5 495.84299 9.2197031e-39
1653.4 -3858.6201 509.50299 9.2197031e-39
1650.77 -3777.5801 508.798 9.2197031e-39
1651.37 -3706.8201 508.961 9.2197031e-39
1646.79 -3560.6299 507.733 9.2197031e-39
1642.61 865.02002 506.61301 9.2197031e-39
1644.88 1058.85 507.22198 9.2197031e-39
1628.34 1068.33 502.78799 9.2197031e-39
1626.35 1677.01 502.25601 9.2197031e-39
1680.9399 -4453.8203 516.88202 9.2197031e-39
1658.5 -4296.5498 510.86899 9.2197031e-39
1665 -4220.6499 512.61102 9.2197031e-39
1664.41 -4130.1396 512.45398 9.2197031e-39
1658.26 -4029.8 510.806 9.2197031e-39
1655.53 -3941.77 510.07501 9.2197031e-39
1668.6801 -3541.6499 513.59802 9.2197031e-39
1691.38 1054.98 519.67999 9.2197031e-39
1671.61 1061.1801 514.38397 9.2197031e-39
1671.99 1499.49 514.48401 9.2197031e-39
1709.9399 -3764.46 524.65399 9.2197031e-39
1700.88 -3543.8799 522.22498 9.2197031e-39
1705.27 1041.92 523.40302 9.2197031e-39
1763.4301 -3542.8601 538.987 9.2197031e-39
1730.09 -3539.55 530.05402 9.2197031e-39
1738.16 1049.9301 532.216 9.2197031e-39
1784.95 -3522.95 544.75403 9.2197031e-39
1830.61 -3548.3401 556.98602 9.2197031e-39
1856.35 -3535.71 563.88397 9.2197031e-39
1889.73 -3536.6899 572.828 9.2197031e-39
1923.24 -3537.29 581.80798 9.2197031e-39
1957.39 -3538.3701 590.95801 9.2197031e-39
1991.1801 -3538.2 600.01202 9.2197031e-39
2023.05 -3534.25 608.54999 9.2197031e-39
2026.27 -3272.6399 609.41302 9.2197031e-39
1997.01 -3132.71 601.57397 9.2197031e-39
2006.9399 -3100.6699 604.23401 9.2197031e-39
2012.53 -2975.3 605.73199 9.2197031e-39
2028.3199 -2953.79 609.96301 9.2197031e-39
2054.46 -3529.1001 616.96698 9.2197031e-39
2040.02 -3101.6001 613.09698 9.2197031e-39
2048.6899 -2938.4299 615.42297 9.2197031e-39
2093.28 -3535.3501 627.37 9.2197031e-39
2083.0701 -3410.4399 624.63397 9.2197031e-39
2083.7 -3116.5 624.80402 9.2197031e-39
2067.73 -2921.3301 620.52301 9.2197031e-39
2088.46 -2906.3899 626.07703 9.2197031e-39
2123.8201 -3527.77 635.55298 9.2197031e-39
2114.6599 -2898.1299 633.09698 9.2197031e-39
2146.5 -2896.4299 641.63 9.2197031e-39
2146.78 -2856.5801 641.70398 9.2197031e-39
2171.1599 -443.63098 648.23602 9.2197031e-39
2151.48 -427.95502 642.96399 9.2197031e-39
2154.77 -410.32098 643.84497 9.2197031e-39
2151.1699 -393.34698 642.88202 9.2197031e-39
2147.4399 -376.42401 641.88202 9.2197031e-39
2156.99 -357.84601 644.44 9.2197031e-39
2206.6299 -3489.97 657.74103 9.2197031e-39
2177.8899 -2853.6101 650.03998 9.2197031e-39
2195.52 -2834.6399 654.76398 9.2197031e-39
2206.1299 -458.534 657.60602 9.2197031e-39
2242.9199 -473.935 667.46399 9.2197031e-39
2276.9299 -2887.77 676.57703 9.2197031e-39
2273.0801 -2843.79 675.54498 9.2197031e-39
2291.9099 -2825.45 680.59302 9.2197031e-39
2310.5901 -2806.9299 685.59802 9.2197031e-39
2323.8701 -506.34918 689.15503 9.2197031e-39
2290.2 -489.414 680.13501 9.2197031e-39
2348.71 -524.1983 695.81201 9.2197031e-39
2385.99 -2848.1599 705.79999 9.2197031e-39
2398.9299 -561.20331 709.26703 9.2197031e-39
2380.1699 -542.30603 704.242 9.2197031e-39
2423.3999 -600 715.82501 9.2197031e-39
2404 -580.55731 710.62701 9.2197031e-39
2473.8401 -2900.22 729.34003 9.2197031e-39
2451.3301 -619.8703 723.30798 9.2197031e-39
2482.1201 -2868.8401 731.55902 9.2197031e-39
2542.53 1219.59 747.74597 9.2197031e-39
2530.1499 1242.67 744.42902 9.2197031e-39
2554.6599 -2902.1001 750.99701 9.2197031e-39
2624.8999 1251.1801 769.815 9.2197031e-39
2659.8201 1244.54 779.17401 9.2197031e-39
2684.6599 1229.77 785.828 9.2197031e-39
2725.4099 332.005 796.74799 9.2197031e-39
2750.3101 1244.89 803.42102 9.2197031e-39
2807.71 1252.65 818.79901 9.2197031e-39
2870.99 1263.48 835.755 9.2197031e-39
2940.77 385.73102 854.45398 9.2197031e-39
2929.04 1269.38 851.31 9.2197031e-39
3004.3 1285.97 871.47601 9.2197031e-39
3070.98 -1088.376 889.34198 9.2197031e-39
3063.03 1289.9 887.21198 9.2197031e-39
3098.77 -3396.78 896.78998 9.2197031e-39
3095.3999 -3345.04 895.88501 9.2197031e-39
3093.5 -3295.6001 895.37701 9.2197031e-39
3105.3501 -3259.79 898.552 9.2197031e-39
3077.8501 -1063.359 891.18298 9.2197031e-39
3111.74 -3219.3401 900.26501 9.2197031e-39
3122.78 -3183.5601 903.22198 9.2197031e-39
3251.71 -654.20721 937.76898 9.2197031e-39
3285.8999 -682.24792 946.92999 9.2197031e-39
3350.1001 -3339.3701 964.13397 9.2197031e-39
3351.1799 -34.254028 964.422 9.2197031e-39
3385.3601 -57.158997 973.58099 9.2197031e-39
3519.1399 26.890015 1009.43 9.2197031e-39
3582.3501 -901.646 1026.36 9.2197031e-39
3582.8401 -871.39001 1026.49 9.2197031e-39
3574.3999 -840.52002 1024.23 9.2197031e-39
3595.97 -963.86304 1030.01 9.2197031e-39
3596.99 -933.44702 1030.29 9.2197031e-39
3662.6001 1277.42 1047.87 9.2197031e-39
3697.1699 -3592.8201 1057.13 9.2197031e-39
3707.4199 -818.79797 1059.88 9.2197031e-39
3703.8401 1142.96 1058.92 9.2197031e-39
3695.0701 1177.21 1056.5699 9.2197031e-39
3677.3701 1206.88 1051.83 9.2197031e-39
3670.5801 1242.38 1050.01 9.2197031e-39
3721.3799 -1009.229 1063.62 9.2197031e-39
3736.78 968.68005 1067.74 9.2197031e-39
3730.49 1003.36 1066.0601 9.2197031e-39
3722.99 1037.62 1064.05 9.2197031e-39
3717.8101 1073.15 1062.66 9.2197031e-39
3711.4199 1108.27 1060.95 9.2197031e-39
3773.76 -791.07898 1077.65 9.2197031e-39
3765.5901 -758.81799 1075.46 9.2197031e-39
3751.6499 937.92004 1071.73 9.2197031e-39
3816.74 779.81995 1089.17 9.2197031e-39
3824.8999 1408.36 1091.36 9.2197031e-39
3889.6201 269.43597 1108.7 9.2197031e-39
3886.8501 303.43298 1107.95 9.2197031e-39
3882.8401 337.20502 1106.88 9.2197031e-39
3881.3501 371.724 1106.48 9.2197031e-39
3887.95 408.62 1108.25 9.2197031e-39
3857.71 685.33997 1100.15 9.2197031e-39
3876.21 840.28003 1105.1 9.2197031e-39
3927.1399 139.57501 1118.75 9.2197031e-39
3928.3401 174.34497 1119.0699 9.2197031e-39
3904.6699 203.78601 1112.73 9.2197031e-39
3900.5801 237.40503 1111.63 9.2197031e-39
3897.9299 446.77002 1110.92 9.2197031e-39
3914.03 487.10999 1115.24 9.2197031e-39
3904.1299 665.08997 1112.59 9.2197031e-39
3918.75 895.31995 1116.5 9.2197031e-39
3932.3 -98.388 1120.13 9.2197031e-39
3936.54 -63.905029 1121.27 9.2197031e-39
3942.22 641.31995 1122.79 9.2197031e-39
3989.3899 619.95996 1135.4301 9.2197031e-39
3971.52 995.02002 1130.64 9.2197031e-39
4080.71 1597.1599 1159.9 9.2197031e-39
4056.1599 1628.22 1153.3199 9.2197031e-39
4239.1699 1067.75 1202.36 9.2197031e-39
4266.1602 1946.6599 1209.59 9.2197031e-39
4273.3398 633.18994 1211.51 9.2197031e-39
4269.2598 671.52002 1210.42 9.2197031e-39
4406.2202 -3900.0901 1247.12 9.2197031e-39
4460.1099 -3882.8999 1261.5601 9.2197031e-39
4521.79 -3870.9299 1278.09 9.2197031e-39
4501.23 2202.55 1272.58 9.2197031e-39
4561.4302 -1266.7681 1288.71 9.2197031e-39
4578.8901 -3854.5701 1293.39 9.2197031e-39
4567.8398 -1227.949 1290.4301 9.2197031e-39
4573.9302 -1189.064 1292.0601 9.2197031e-39
4570.1001 -1148.8989 1291.03 9.2197031e-39
4578.7598 2199.03 1293.35 9.2197031e-39
4628.1802 -3831.6101 1306.59 9.2197031e-39
4672.5698 -4372.5801 1318.49 9.2197031e-39
4691.6499 -3818.3401 1323.6 9.2197031e-39
4752.2402 -4372.77 1339.84 9.2197031e-39
4784.25 2219.3201 1348.41 9.2197031e-39
4823.5601 2132.5 1358.95 9.2197031e-39
4833.0098 -4372.4399 1361.48 9.2197031e-39
4898.8799 -4358.6104 1379.13 9.2197031e-39
4876.9199 2220.3899 1373.24 9.2197031e-39
5531.3701 -4356.4102 1548.6 9.2197031e-39
5608.0898 -3737.23 1569.16 9.2197031e-39
5608.9902 -3674.1799 1569.4 9.2197031e-39
5602.4399 -3607.53 1567.65 9.2197031e-39
5622.0898 -4349.9502 1572.91 9.2197031e-39
5642.2202 -4293.5601 1578.3 9.2197031e-39
5633.4502 -4218.04 1575.96 9.2197031e-39
5627.8999 -4145.6396 1574.47 9.2197031e-39
5628.0898 -4077.8601 1574.52 9.2197031e-39
5630.02 -4011.9099 1575.04 9.2197031e-39
5630.4302 -3945.6899 1575.15 9.2197031e-39
5621.8101 -3874.6399 1572.83 9.2197031e-39
5612.3999 -3804 1570.3101 9.2197031e-39
5685.0098 -3404.3501 1589.77 9.2197031e-39
5683.2598 -3342.45 1589.3 9.2197031e-39
5680.8901 -3280.79 1588.67 9.2197031e-39
5683.9399 -3162.8 1589.48 9.2197031e-39
5693.2598 -3595.23 1591.98 9.2197031e-39
5692.6001 -3532.1001 1591.8 9.2197031e-39
5693.0098 -3470.1299 1591.91 9.2197031e-39
5686.6499 -3223.6101 1590.21 9.2197031e-39
5700.04 -3111.1899 1593.8 9.2197031e-39
7252.0898 -3166.3101 2009.67 9.2197031e-39
7241.04 -852.672 2006.71 9.2197031e-39
7263.2002 -3756.1001 2012.65 9.2197031e-39
7265.5298 -3682.0901 2013.27 9.2197031e-39
7260.8999 -3605.5901 2012.03 9.2197031e-39
7261.79 -3532.04 2012.27 9.2197031e-39
7262.8701 -3459.0801 2012.5601 9.2197031e-39
7262.3599 -3385.95 2012.42 9.2197031e-39
7262.0498 -3313.4099 2012.34 9.2197031e-39
7261.96 -3241.4199 2012.3101 9.2197031e-39
7256.1001 -3096.78 2010.74 9.2197031e-39
7443.6001 -3091.1599 2060.98 9.2197031e-39
7627.8398 -3081.1001 2110.3501 9.2197031e-39
7691.0498 550.98999 2127.29 9.2197031e-39
7697.2798 620.81006 2128.96 9.2197031e-39
7771.0801 -2979.8999 2148.73 9.2197031e-39
7809.6899 -3066.99 2159.0801 9.2197031e-39
7808.4502 -2917.28 2158.74 9.2197031e-39
7807.2202 -2477.8301 2158.4199 9.2197031e-39
7803 -2404.78 2157.28 9.2197031e-39
7800.0098 -2332.3799 2156.48 9.2197031e-39
7804.8799 -2262.05 2157.79 9.2197031e-39
7802.5098 -2190.3599 2157.1499 9.2197031e-39
7806.1401 -2120.1699 2158.1299 9.2197031e-39
7793.0298 -2046.95 2154.6101 9.2197031e-39
7797.3301 -1977.38 2155.76 9.2197031e-39
7827.6899 -2848.9199 2163.8999 9.2197031e-39
7835.1899 -2777.1899 2165.9099 9.2197031e-39
7830.8599 -2702.3899 2164.75 9.2197031e-39
7828.6602 -2628.5801 2164.1599 9.2197031e-39
7815.48 -2552.3101 2160.6299 9.2197031e-39
