# .PCD v0.7 - Point Cloud Data file format
VERSION 0.7
FIELDS x y z rgb
SIZE 4 4 4 4
TYPE F F F F
COUNT 1 1 1 1
WIDTH 318
HEIGHT 1
VIEWPOINT 0 0 0 1 0 0 0
POINTS 318
DATA ascii
252 -1210 134 9.2197031e-39
257.125 -1207.9771 135.373 9.2197031e-39
264.70648 -1202.8505 137.40451 9.2197031e-39
272.36099 -1203.6321 139.45599 9.2197031e-39
272.5965 -767.64801 139.519 9.2197031e-39
267.186 -471.96201 138.069 9.2197031e-39
271.896 -453.44 139.33099 9.2197031e-39
273.702 -449.66998 139.815 9.2197031e-39
273.81201 -428.47998 139.84399 9.2197031e-39
252.00101 1304 134 9.2197031e-39
268.04199 1302.9301 138.298 9.2197031e-39
277.19601 -1197.431 140.75101 9.2197031e-39
282.28101 -1198.179 142.114 9.2197031e-39
286.733 -1187.901 143.30701 9.2197031e-39
291.41699 -1183.575 144.562 9.2197031e-39
295.88 -1177.2151 145.758 9.2197031e-39
299.73401 -1164.842 146.78999 9.2197031e-39
300.42001 -1120.592 146.974 9.2197031e-39
289.96399 -973.94 144.172 9.2197031e-39
289.72501 -942.78198 144.108 9.2197031e-39
282.82501 -801.48804 142.25999 9.2197031e-39
279.41199 -789.89099 141.345 9.2197031e-39
282.41302 -783.31396 142.14951 9.2197031e-39
275.52499 -773.297 140.304 9.2197031e-39
283.33301 -775.01898 142.396 9.2197031e-39
283.14801 -765.89502 142.34599 9.2197031e-39
303.54834 -764.20801 147.81233 9.2197031e-39
310.85999 -762.98102 149.771 9.2197031e-39
285.99982 -753.80579 143.1102 9.2197031e-39
294.98239 -756.16541 145.517 9.2197031e-39
303.888 -756.01099 147.903 9.2197031e-39
282.32501 -747.70001 142.12601 9.2197031e-39
290.25 -747.78699 144.24899 9.2197031e-39
302.10852 -744.46649 147.4265 9.2197031e-39
309.802 -474.54102 149.48801 9.2197031e-39
308.61301 -461.92401 149.16901 9.2197031e-39
310.54199 -462.24451 149.686 9.2197031e-39
288.17136 -455.10934 143.69167 9.2197031e-39
292.815 -452.61966 144.93633 9.2197031e-39
305.67551 -453.24152 148.38251 9.2197031e-39
277.686 -445.2695 140.88251 9.2197031e-39
285.12299 -445.17618 142.8754 9.2197031e-39
296.62701 -448.91199 145.95801 9.2197031e-39
304.6116 -444.48438 148.0974 9.2197031e-39
310.50101 -442.22501 149.675 9.2197031e-39
277.98999 -430.11798 140.964 9.2197031e-39
283.44348 -432.64301 142.42551 9.2197031e-39
284.19901 1309.71 142.62801 9.2197031e-39
300.245 1307.35 146.927 9.2197031e-39
313.06299 -462.87201 150.362 9.2197031e-39
312.48602 -443.03101 150.2075 9.2197031e-39
316.59 1314.83 151.30701 9.2197031e-39
332.728 1314.1801 155.631 9.2197031e-39
349.21399 1320.36 160.048 9.2197031e-39
365.86899 1327.4 164.511 9.2197031e-39
382.31299 1329.29 168.91701 9.2197031e-39
398.646 1329.03 173.29401 9.2197031e-39
414.98499 1328.63 177.672 9.2197031e-39
431.884 1334.05 182.2 9.2197031e-39
448.987 1340.3101 186.783 9.2197031e-39
466.319 1347.4 191.427 9.2197031e-39
1308.13 1051.9301 416.98901 9.2197031e-39
1326.88 1049.78 422.01199 9.2197031e-39
1352.78 1058.14 428.953 9.2197031e-39
1424.99 1071.4301 448.30099 9.2197031e-39
1422.42 1678.8899 447.61301 9.2197031e-39
1414.08 1761.1699 445.379 9.2197031e-39
1429.91 1845.8601 449.61899 9.2197031e-39
1421.53 1882.47 447.37299 9.2197031e-39
1455.73 582.58997 456.53799 9.2197031e-39
1446.41 594.12 454.04099 9.2197031e-39
1442.5 611.17004 452.99399 9.2197031e-39
1433.61 623.29004 450.612 9.2197031e-39
1437.88 1059.16 451.75601 9.2197031e-39
1465.26 1160.9301 459.09201 9.2197031e-39
1453.12 1788.72 455.83899 9.2197031e-39
1482.54 507.43005 463.72198 9.2197031e-39
1496.97 500.81006 467.58899 9.2197031e-39
1487.63 531.75 465.086 9.2197031e-39
1487.37 551.56995 465.017 9.2197031e-39
1477.62 562.68994 462.40399 9.2197031e-39
1471.3 577.13 460.71201 9.2197031e-39
1497.27 1050.09 467.668 9.2197031e-39
1473.85 1729.74 461.39301 9.2197031e-39
1496.72 1724.74 467.521 9.2197031e-39
1518.04 499.81006 473.23499 9.2197031e-39
1533.97 494.05005 477.50299 9.2197031e-39
1542.49 1623.49 479.785 9.2197031e-39
1531.05 1647.99 476.72 9.2197031e-39
1539.58 1708.8201 479.00601 9.2197031e-39
1516.26 1713.3999 472.758 9.2197031e-39
1543.9 483.06006 480.16199 9.2197031e-39
1571.87 486.91003 487.659 9.2197031e-39
1570.77 1627.95 487.36301 9.2197031e-39
1604.4399 1224.71 496.38599 9.2197031e-39
1607.61 1602.9399 497.23401 9.2197031e-39
1654.76 -3939.9299 509.86899 9.2197031e-39
1653 -3857.7 509.397 9.2197031e-39
1650.77 -3777.5801 508.798 9.2197031e-39
1651.37 -3706.8201 508.961 9.2197031e-39
1647.64 -3562.4199 507.95999 9.2197031e-39
1635.17 857.17004 504.61801 9.2197031e-39
1639.1801 1052.0601 505.69299 9.2197031e-39
1623.3199 1062.25 501.444 9.2197031e-39
1620.21 1666.8301 500.61099 9.2197031e-39
1680.59 -4452.8896 516.78998 9.2197031e-39
1658.14 -4295.6201 510.77399 9.2197031e-39
1665 -4220.6499 512.61102 9.2197031e-39
1663.67 -4128.2998 512.25598 9.2197031e-39
1657.88 -4028.8799 510.70401 9.2197031e-39
1668.25 -3540.75 513.48199 9.2197031e-39
1691.38 1054.98 519.67999 9.2197031e-39
1666.45 1491.29 512.99902 9.2197031e-39
1714.1 -3773.49 525.76898 9.2197031e-39
1700.4399 -3542.99 522.10699 9.2197031e-39
1720.9399 1059.61 527.59998 9.2197031e-39
1733.22 -3545.76 530.89099 9.2197031e-39
1762.53 -3541.1001 538.74402 9.2197031e-39
1784.95 -3522.95 544.75403 9.2197031e-39
1830.61 -3548.3401 556.98602 9.2197031e-39
1855.87 -3534.8401 563.75702 9.2197031e-39
1888.76 -3534.96 572.56897 9.2197031e-39
1922.75 -3536.4299 581.677 9.2197031e-39
1952.7 -3068.3999 589.70099 9.2197031e-39
1956.89 -3537.51 590.82501 9.2197031e-39
1985.63 -3528.8201 598.52399 9.2197031e-39
1991.11 -3171.3201 599.992 9.2197031e-39
1974.58 -3054.5601 595.56299 9.2197031e-39
2022.02 -3532.55 608.276 9.2197031e-39
2020.9301 -3366.8301 607.98199 9.2197031e-39
1992.89 -3222.3701 600.47101 9.2197031e-39
1991.1801 -3033.27 600.01099 9.2197031e-39
2007.55 -3011.8799 604.39899 9.2197031e-39
2058.0901 -3535 617.94098 9.2197031e-39
2044.1801 -3350.75 614.21301 9.2197031e-39
2031.34 -3000.6899 610.77399 9.2197031e-39
2052.1101 -2985.3101 616.33698 9.2197031e-39
2086.45 -3524.4399 625.53802 9.2197031e-39
2072.1399 -2968.95 621.70599 9.2197031e-39
2078.0601 -2934.55 623.29199 9.2197031e-39
2100.74 -2921.8201 629.36902 9.2197031e-39
2125.21 -2911.1599 635.92499 9.2197031e-39
2154.03 -2905.55 643.64697 9.2197031e-39
2170.1899 -443.71002 647.97803 9.2197031e-39
2143.78 -428.65198 640.90198 9.2197031e-39
2154.77 -410.32098 643.84497 9.2197031e-39
2151.1699 -393.34698 642.88202 9.2197031e-39
2146.48 -376.53699 641.62402 9.2197031e-39
2154.1101 -358.211 643.66901 9.2197031e-39
2188.77 -2866.3401 652.95502 9.2197031e-39
2213.6101 -2855.4399 659.61298 9.2197031e-39
2194.5601 -459.371 654.508 9.2197031e-39
2217.75 -2941.1101 660.72101 9.2197031e-39
2245.6001 -2852.3799 668.18402 9.2197031e-39
2242.9199 -473.935 667.46399 9.2197031e-39
2277.03 -2848.1799 676.60498 9.2197031e-39
2322.8999 -506.39279 688.89697 9.2197031e-39
2291.1699 -489.362 680.39301 9.2197031e-39
2331.1399 -2868.25 691.104 9.2197031e-39
2346.78 -524.26807 695.29498 9.2197031e-39
2398.9299 -561.20331 709.26703 9.2197031e-39
2384.03 -542.20129 705.276 9.2197031e-39
2404.53 -2907.6399 710.76898 9.2197031e-39
2423.22 -2887.3899 715.77802 9.2197031e-39
2421.47 -600 715.30701 9.2197031e-39
2405.9299 -580.53979 711.14398 9.2197031e-39
2452.6699 -2878.3 723.66699 9.2197031e-39
2450.3601 -619.86157 723.04999 9.2197031e-39
2542.53 1219.59 747.74597 9.2197031e-39
2537.76 1248.83 746.46802 9.2197031e-39
2657.49 1242.76 778.54999 9.2197031e-39
2629.53 1254.79 771.05603 9.2197031e-39
2682.3101 1228.01 785.20001 9.2197031e-39
2744.47 339.18701 801.85498 9.2197031e-39
2751.8899 1246.05 803.84302 9.2197031e-39
2800.5801 1247.49 816.89099 9.2197031e-39
2863.03 1257.8101 833.62201 9.2197031e-39
2931.6699 382.39301 852.01398 9.2197031e-39
2929.04 1269.38 851.31 9.2197031e-39
2991.4099 1277.14 868.02197 9.2197031e-39
3070.02 -1088.2109 889.08698 9.2197031e-39
3063.03 1289.9 887.21198 9.2197031e-39
3093.22 -3490.55 895.302 9.2197031e-39
3107.75 -3455.05 899.19501 9.2197031e-39
3097.3701 -3395.4099 896.41498 9.2197031e-39
3093.98 -3343.6799 895.50702 9.2197031e-39
3093.5 -3295.6001 895.37701 9.2197031e-39
3104.6299 -3259.1201 898.35901 9.2197031e-39
3109.5701 -3217.3501 899.68402 9.2197031e-39
3077.8501 -1063.359 891.18298 9.2197031e-39
3116.95 -3178.3101 901.659 9.2197031e-39
3284.9299 -682.2218 946.672 9.2197031e-39
3264.26 -654.43402 941.133 9.2197031e-39
3324.3999 -3316.6399 957.24597 9.2197031e-39
3369.1599 -59.963989 969.242 9.2197031e-39
3336.9099 -36.859009 960.59802 9.2197031e-39
3514.3999 25.979004 1008.16 9.2197031e-39
3592.1299 -963.44501 1028.98 9.2197031e-39
3587.3701 -932.48901 1027.71 9.2197031e-39
3581.3899 -901.55896 1026.11 9.2197031e-39
3582.8401 -871.39001 1026.49 9.2197031e-39
3567.6499 -840.03198 1022.43 9.2197031e-39
3669.72 1241.91 1049.78 9.2197031e-39
3661.74 1276.95 1047.64 9.2197031e-39
3691.99 -3588.3201 1055.74 9.2197031e-39
3707.4199 -818.79797 1059.88 9.2197031e-39
3694.29 1138.14 1056.36 9.2197031e-39
3687.29 1173.1899 1054.48 9.2197031e-39
3678.23 1207.34 1052.0601 9.2197031e-39
3710.8201 -1007.984 1060.79 9.2197031e-39
3735.01 967.88 1067.27 9.2197031e-39
3730.49 1003.36 1066.0601 9.2197031e-39
3722.1201 1037.21 1063.8101 9.2197031e-39
3716.0601 1072.3 1062.1899 9.2197031e-39
3710.55 1107.84 1060.72 9.2197031e-39
3775.6899 -791.18298 1078.17 9.2197031e-39
3776.2 -759.29797 1078.3101 9.2197031e-39
3749.8701 937.14001 1071.25 9.2197031e-39
3813.02 1401.6801 1088.17 9.2197031e-39
3827.6001 784.02002 1092.08 9.2197031e-39
3890.6101 304.367 1108.96 9.2197031e-39
3879.0901 336.237 1105.88 9.2197031e-39
3878.55 370.97302 1105.73 9.2197031e-39
3857.71 685.33997 1100.15 9.2197031e-39
3876.21 840.28003 1105.1 9.2197031e-39
3927.1399 139.57501 1118.75 9.2197031e-39
3924.55 173.547 1118.0601 9.2197031e-39
3899 202.539 1111.21 9.2197031e-39
3900.5801 237.40503 1111.63 9.2197031e-39
3898.0901 271.46002 1110.97 9.2197031e-39
3895.4099 410.69 1110.25 9.2197031e-39
3899.79 447.31006 1111.42 9.2197031e-39
3905.6799 484.63 1113 9.2197031e-39
3903.22 664.78003 1112.34 9.2197031e-39
3918.75 895.31995 1116.5 9.2197031e-39
3932.3 -98.388 1120.13 9.2197031e-39
3941.3201 -63.210022 1122.55 9.2197031e-39
3941.3 641.01001 1122.54 9.2197031e-39
3993.0701 621.17004 1136.42 9.2197031e-39
3981.3401 999.22998 1133.27 9.2197031e-39
4073.1101 1592.79 1157.86 9.2197031e-39
4055.3201 1627.72 1153.1 9.2197031e-39
4236.48 1066.62 1201.64 9.2197031e-39
4259.5801 1942.48 1207.83 9.2197031e-39
4271.4902 632.63 1211.02 9.2197031e-39
4269.2598 671.52002 1210.42 9.2197031e-39
4402.3901 -3897.05 1246.09 9.2197031e-39
4460.1099 -3882.8999 1261.5601 9.2197031e-39
4516.3501 -3866.77 1276.63 9.2197031e-39
4501.23 2202.55 1272.58 9.2197031e-39
4557.6099 -1266.177 1287.6801 9.2197031e-39
4580.4502 -3855.74 1293.8101 9.2197031e-39
4567.8398 -1227.949 1290.4301 9.2197031e-39
4572.9702 -1188.9341 1291.8 9.2197031e-39
4570.1001 -1148.8989 1291.03 9.2197031e-39
4578.7598 2199.03 1293.35 9.2197031e-39
4632.8999 -3835.1001 1307.86 9.2197031e-39
4672.5698 -4372.5801 1318.49 9.2197031e-39
4691.6499 -3818.3401 1323.6 9.2197031e-39
4745.48 -4367.1104 1338.02 9.2197031e-39
4784.25 2219.3201 1348.41 9.2197031e-39
4823.5601 2132.5 1358.95 9.2197031e-39
4833.0098 -4372.4399 1361.48 9.2197031e-39
4876.9199 2220.3899 1373.24 9.2197031e-39
4904.9702 -4363.54 1380.76 9.2197031e-39
5531.3701 -4356.4102 1548.6 9.2197031e-39
5608.0898 -3737.23 1569.16 9.2197031e-39
5608.9902 -3674.1799 1569.4 9.2197031e-39
5602.4399 -3607.53 1567.65 9.2197031e-39
5614.8799 -4344.9102 1570.98 9.2197031e-39
5642.2202 -4293.5601 1578.3 9.2197031e-39
5633.4502 -4218.04 1575.96 9.2197031e-39
5635.23 -4150.4697 1576.4301 9.2197031e-39
5635.46 -4082.6299 1576.49 9.2197031e-39
5629.2002 -4011.3899 1574.8199 9.2197031e-39
5629.6001 -3945.1699 1574.92 9.2197031e-39
5620.9702 -3874.1299 1572.61 9.2197031e-39
5612.3999 -3804 1570.3101 9.2197031e-39
5684.3999 -3465.5901 1589.61 9.2197031e-39
5684.1401 -3403.9099 1589.54 9.2197031e-39
5683.2598 -3342.45 1589.3 9.2197031e-39
5680.8901 -3280.79 1588.67 9.2197031e-39
5678.77 -3219.8101 1588.1 9.2197031e-39
5675.1499 -3158.6599 1587.13 9.2197031e-39
5692.4102 -3594.76 1591.75 9.2197031e-39
5692.6001 -3532.1001 1591.8 9.2197031e-39
5696.5098 -3109.5601 1592.85 9.2197031e-39
7251.98 -3237.6599 2009.64 9.2197031e-39
7240.0801 -852.63696 2006.45 9.2197031e-39
7263.2002 -3756.1001 2012.65 9.2197031e-39
7265.5298 -3682.0901 2013.27 9.2197031e-39
7260.8999 -3605.5901 2012.03 9.2197031e-39
7261.79 -3532.04 2012.27 9.2197031e-39
7262.8701 -3459.0801 2012.5601 9.2197031e-39
7261.4502 -3385.5901 2012.1801 9.2197031e-39
7262.0498 -3313.4099 2012.34 9.2197031e-39
7257.5498 -3168.3101 2011.13 9.2197031e-39
7255.1899 -3096.46 2010.5 9.2197031e-39
7427.1099 -3085.45 2056.5601 9.2197031e-39
7627.8398 -3081.1001 2110.3501 9.2197031e-39
7690.0898 550.83997 2127.03 9.2197031e-39
7693.46 620.18994 2127.9299 9.2197031e-39
7768.3101 -2979.03 2147.99 9.2197031e-39
7806.9199 -3066.0901 2158.3401 9.2197031e-39
7801.04 -2915.01 2156.76 9.2197031e-39
7810.79 -2551.1001 2159.3701 9.2197031e-39
7799.71 -2475.97 2156.3999 9.2197031e-39
7796.4102 -2403.21 2155.52 9.2197031e-39
7793.4102 -2330.8701 2154.71 9.2197031e-39
7793.54 -2259.55 2154.75 9.2197031e-39
7794.9302 -2188.76 2155.1201 9.2197031e-39
7790.02 -2116.9302 2153.8101 9.2197031e-39
7785.4302 -2045.49 2152.5801 9.2197031e-39
7786.8599 -1975.47 2152.96 9.2197031e-39
7827.6899 -2848.9199 2163.8999 9.2197031e-39
7830.54 -2775.8501 2164.6599 9.2197031e-39
7827.1299 -2701.3501 2163.75 9.2197031e-39
7817.4399 -2625.5698 2161.1499 9.2197031e-39
