# .PCD v0.7 - Point Cloud Data file format
VERSION 0.7
FIELDS x y z rgb
SIZE 4 4 4 4
TYPE F F F F
COUNT 1 1 1 1
WIDTH 294
HEIGHT 1
VIEWPOINT 0 0 0 1 0 0 0
POINTS 294
DATA ascii
120.741 -7698 32.352402 9.2197031e-39
147.48599 -874.82098 39.518799 9.2197031e-39
144.584 -865.16602 38.7411 9.2197031e-39
138.634 -850.867 37.146801 9.2197031e-39
144.95151 -853.4295 38.839649 9.2197031e-39
135.677 -841.15454 36.354549 9.2197031e-39
148.38699 -847.24402 39.760101 9.2197031e-39
129.2565 -834.71045 34.634148 9.2197031e-39
133.72975 -836.31128 35.832802 9.2197031e-39
148.379 -837.55396 39.758102 9.2197031e-39
137.679 -575.22601 36.890999 9.2197031e-39
143.076 -561.92798 38.336998 9.2197031e-39
138.5885 -554.67151 37.134598 9.2197031e-39
145.42026 -553.22852 38.965153 9.2197031e-39
120.741 1167 32.352402 9.2197031e-39
136.545 1174.9301 36.5872 9.2197031e-39
179.661 -7689.73 48.1399 9.2197031e-39
149.59599 -878.51801 40.084202 9.2197031e-39
150.09399 -872.341 40.217499 9.2197031e-39
168.797 -853.12 45.229099 9.2197031e-39
157.998 -843.9173 42.3354 9.2197031e-39
165.91528 -846.39062 44.456902 9.2197031e-39
151.94925 -837.24127 40.714622 9.2197031e-39
164.019 -823.09998 43.9487 9.2197031e-39
153.991 -571.53198 41.2617 9.2197031e-39
174.84924 -574.98798 46.850647 9.2197031e-39
155.30119 -564.67499 41.612823 9.2197031e-39
175.1105 -567.46252 46.920547 9.2197031e-39
154.67799 -557.31567 41.445801 9.2197031e-39
166.25241 -555.07861 44.54718 9.2197031e-39
174.29175 -553.66895 46.701248 9.2197031e-39
152.6105 -541.39697 40.8918 9.2197031e-39
176.5295 -547.591 47.3009 9.2197031e-39
168.125 1173.36 45.048901 9.2197031e-39
152.45 1180.71 40.8489 9.2197031e-39
184.25101 1182.85 49.3699 9.2197031e-39
188.939 -551.97601 50.625999 9.2197031e-39
200.119 1182.21 53.621799 9.2197031e-39
215.98199 1181.42 57.8722 9.2197031e-39
239.183 -7724.9302 64.088898 9.2197031e-39
232.368 1189.47 62.262798 9.2197031e-39
248.897 1197.37 66.691597 9.2197031e-39
264.73401 1194.14 70.935097 9.2197031e-39
281.36801 1200.74 75.392197 9.2197031e-39
297.56799 1201.21 79.7332 9.2197031e-39
303.37399 -7920.52 81.288803 9.2197031e-39
314.89999 1212.47 84.377098 9.2197031e-39
364.23001 -7918.6001 97.5952 9.2197031e-39
409.651 -303.078 109.766 9.2197031e-39
405.755 -293.87299 108.722 9.2197031e-39
410.31601 -294.85599 109.944 9.2197031e-39
405.32599 -283.10449 108.60699 9.2197031e-39
404.60052 -215.6915 108.4125 9.2197031e-39
409.495 -192.5 109.724 9.2197031e-39
409.55301 -182.117 109.739 9.2197031e-39
408.98099 -172.56403 109.586 9.2197031e-39
425.06799 -7916.1299 113.897 9.2197031e-39
414.41901 -337.66101 111.043 9.2197031e-39
421.854 -335.005 113.035 9.2197031e-39
434.36099 -333.01199 116.387 9.2197031e-39
447.67801 -330.62399 119.955 9.2197031e-39
417.49799 -327.30499 111.868 9.2197031e-39
431.89001 -329.43799 115.724 9.2197031e-39
444.552 -327.68399 119.117 9.2197031e-39
414.77466 -317.31799 111.13867 9.2197031e-39
413.57401 -304.91 110.817 9.2197031e-39
428.215 -236.841 114.74 9.2197031e-39
428.07999 -228.27802 114.704 9.2197031e-39
429.423 -217.17999 115.064 9.2197031e-39
428.241 -205.045 114.747 9.2197031e-39
424.78699 -196.259 113.821 9.2197031e-39
451.43799 -332.85999 120.962 9.2197031e-39
460.504 -329.33401 123.392 9.2197031e-39
474.37134 -327.461 127.10734 9.2197031e-39
492.79001 -334.48401 132.043 9.2197031e-39
487.95001 -326.41501 130.746 9.2197031e-39
491.08499 -329.74701 131.586 9.2197031e-39
528.80603 -312.88699 141.69299 9.2197031e-39
526.23401 -308.53299 141.004 9.2197031e-39
546.63251 -306.46802 146.4695 9.2197031e-39
554.492 -309.64499 148.576 9.2197031e-39
562.17297 -309.68201 150.634 9.2197031e-39
576.54498 -304.043 154.485 9.2197031e-39
582.84698 -305.63199 156.173 9.2197031e-39
591.40802 -305.41599 158.467 9.2197031e-39
604.54303 -301.591 161.987 9.2197031e-39
618.849 -304.30499 165.82001 9.2197031e-39
622.34497 -294.27899 166.757 9.2197031e-39
1261.58 1668.8899 338.04001 9.2197031e-39
1253 1703.3799 335.741 9.2197031e-39
1298.96 1500.54 348.05499 9.2197031e-39
1286.36 1522.53 344.67801 9.2197031e-39
1282.09 1561.23 343.535 9.2197031e-39
1275.92 1597.3601 341.88101 9.2197031e-39
1279.75 1654.9299 342.90799 9.2197031e-39
1520.3101 -3879.3999 407.36499 9.2197031e-39
1548.98 -4551.9502 415.04901 9.2197031e-39
1550.25 -4457.0303 415.38699 9.2197031e-39
1552.1899 -4367.9399 415.90701 9.2197031e-39
1547.9399 -4267.1001 414.76801 9.2197031e-39
1545.49 -4174.9102 414.11301 9.2197031e-39
1541.22 -4082.1201 412.96799 9.2197031e-39
1542.96 -4007.03 413.43399 9.2197031e-39
1536.85 -3843.98 411.797 9.2197031e-39
1537.9301 -3776.01 412.08701 9.2197031e-39
1540 -3647.02 412.64301 9.2197031e-39
1571.37 -3647.45 421.047 9.2197031e-39
1602.85 -3647.54 429.48199 9.2197031e-39
1606.5699 -3853.8701 430.479 9.2197031e-39
1632.63 -3643.75 437.461 9.2197031e-39
1660.61 -3636.1299 444.95801 9.2197031e-39
1689.98 -3630.8501 452.82901 9.2197031e-39
1702.16 533.71997 456.091 9.2197031e-39
1732.22 -3648.77 464.14801 9.2197031e-39
1734.64 -3086.1899 464.79401 9.2197031e-39
1747.96 -3061.75 468.36401 9.2197031e-39
1746.8 -3017.02 468.05301 9.2197031e-39
1727.25 530.68994 462.815 9.2197031e-39
1755.09 -3630.6299 470.27399 9.2197031e-39
1759.3199 -3168.26 471.409 9.2197031e-39
1755.35 -2986.97 470.34399 9.2197031e-39
1779.8 -2979.3101 476.89499 9.2197031e-39
1783.67 550.81006 477.93201 9.2197031e-39
1827.62 -3640.9399 489.70999 9.2197031e-39
1792.96 -3639.02 480.423 9.2197031e-39
1803.0601 -2969.78 483.129 9.2197031e-39
1822.72 -2955.29 488.397 9.2197031e-39
1811.45 548.51001 485.37601 9.2197031e-39
1861.4301 -3640.76 498.76901 9.2197031e-39
1833.85 -2929.6499 491.379 9.2197031e-39
1862.92 -2927.3 499.16699 9.2197031e-39
1836.9399 544.08997 492.207 9.2197031e-39
1894.35 -3638.49 507.58801 9.2197031e-39
1877.61 550.06006 503.104 9.2197031e-39
1933.0601 -3645.1201 517.961 9.2197031e-39
1919.72 -2959.3201 514.38599 9.2197031e-39
1921.71 557.62 514.922 9.2197031e-39
1967.8101 -3644.5701 527.27301 9.2197031e-39
1966.01 -2976.6799 526.79102 9.2197031e-39
1946.24 -2912.78 521.49298 9.2197031e-39
1973.0601 -2906.02 528.67902 9.2197031e-39
2001.62 -3641.95 536.33301 9.2197031e-39
1979.42 -2874.97 530.38397 9.2197031e-39
1978.29 -2835.8 530.08197 9.2197031e-39
1979.91 -2800.5 530.51599 9.2197031e-39
1996.89 -2782.8999 535.065 9.2197031e-39
2010.39 -2761.51 538.68103 9.2197031e-39
2043.64 -3651.3701 547.59003 9.2197031e-39
2015.61 -2731.4199 540.08099 9.2197031e-39
2038.76 -2720.6401 546.28302 9.2197031e-39
2047.79 -330.24399 548.70203 9.2197031e-39
2051.6699 -293.289 549.74298 9.2197031e-39
2047.14 595.15002 548.53003 9.2197031e-39
2018.4301 600.35999 540.83698 9.2197031e-39
2089.1799 -2737.8799 559.79498 9.2197031e-39
2088.02 -359.177 559.48401 9.2197031e-39
2074.6101 -343.327 555.89001 9.2197031e-39
2053.1299 -311.13101 550.13397 9.2197031e-39
2067.0701 -271.702 553.86798 9.2197031e-39
2080.3601 -250.23801 557.42999 9.2197031e-39
2086.8401 -230.077 559.16803 9.2197031e-39
2126.27 -2740.3501 569.73102 9.2197031e-39
2117.53 -372.58301 567.39099 9.2197031e-39
2096.8999 -208.83099 561.86102 9.2197031e-39
2112.3601 -185.91602 566.00598 9.2197031e-39
2122.9199 -163.93597 568.83301 9.2197031e-39
2146.97 -386.496 575.27802 9.2197031e-39
2133.25 -141.72699 571.60199 9.2197031e-39
2198.97 -2777.72 589.21301 9.2197031e-39
2176.3101 -400.91699 583.14099 9.2197031e-39
2206.53 -415.71399 591.237 9.2197031e-39
2256.9199 -86.687988 604.73901 9.2197031e-39
2985.3301 -3465.5 799.91602 9.2197031e-39
2976.48 -3409.1201 797.54602 9.2197031e-39
2989.9299 -3518.8101 801.15002 9.2197031e-39
2989.8799 -3374.52 801.13501 9.2197031e-39
2997.1201 -3334.5801 803.07599 9.2197031e-39
2990.0601 -3282.25 801.18402 9.2197031e-39
3086.6299 -3322.47 827.06097 9.2197031e-39
3108.3501 -700 832.87903 9.2197031e-39
3182.6101 -727.66309 852.77698 9.2197031e-39
3201.9299 -672.16241 857.953 9.2197031e-39
3190.95 -644.5188 855.013 9.2197031e-39
3285 -614.21808 880.211 9.2197031e-39
3466.6899 -1033.543 928.896 9.2197031e-39
3460.71 -1002.518 927.29401 9.2197031e-39
3457.3601 -971.86096 926.39502 9.2197031e-39
3472.0701 -1095.306 930.33801 9.2197031e-39
3474.3201 -1064.9089 930.94 9.2197031e-39
3512.52 -945.54297 941.17603 9.2197031e-39
3566.6499 -3693.46 955.68103 9.2197031e-39
3567.6299 1118.23 955.94299 9.2197031e-39
3560.74 1153.92 954.09698 9.2197031e-39
3600.26 -920.32397 964.68799 9.2197031e-39
3585.9099 -354.57199 960.84198 9.2197031e-39
3619.52 912.70996 969.84802 9.2197031e-39
3607.5601 983.29004 966.64301 9.2197031e-39
3601.0901 1018.6 964.90802 9.2197031e-39
3593.4099 1053.48 962.85199 9.2197031e-39
3585.4199 1088.36 960.70898 9.2197031e-39
3652.8601 814.66003 978.78003 9.2197031e-39
3638.1799 845.72998 974.84601 9.2197031e-39
3631.21 880.23999 972.97998 9.2197031e-39
3622.5 952.14001 970.64502 9.2197031e-39
3636.24 1235.16 974.32703 9.2197031e-39
3694.5901 -893.90503 989.96198 9.2197031e-39
3726.45 585.33997 998.5 9.2197031e-39
3707.29 614.87 993.36401 9.2197031e-39
3713.3101 653.71997 994.979 9.2197031e-39
3722.5701 694.18005 997.46002 9.2197031e-39
3760.97 560.96997 1007.75 9.2197031e-39
3754.1499 819.78003 1005.92 9.2197031e-39
3803.6101 538.84998 1019.17 9.2197031e-39
3781.02 754.62 1013.12 9.2197031e-39
3821.1001 -297.35599 1023.86 9.2197031e-39
3842.52 -260.99799 1029.6 9.2197031e-39
3828.1299 -228.73099 1025.75 9.2197031e-39
3842.47 514.84998 1029.59 9.2197031e-39
3881.2 490.25 1039.96 9.2197031e-39
3948.6101 1496.6699 1058.03 9.2197031e-39
3987.96 -3201.75 1068.5699 9.2197031e-39
3977.6001 -3146.8601 1065.79 9.2197031e-39
3978.02 1468.21 1065.91 9.2197031e-39
4008.8401 -3118.6201 1074.17 9.2197031e-39
4053.22 -3098.1201 1086.0601 9.2197031e-39
4086.6599 -3070.5 1095.02 9.2197031e-39
4156.1001 -3063.6299 1113.62 9.2197031e-39
4145.1699 1657.23 1110.6899 9.2197031e-39
4150.4199 1806.6899 1112.1 9.2197031e-39
4305.71 -3964.8501 1153.71 9.2197031e-39
4334.1299 2078.9099 1161.33 9.2197031e-39
4370.3398 -3955.47 1171.03 9.2197031e-39
4413.1001 2076.78 1182.48 9.2197031e-39
4443.5498 -4134.02 1190.65 9.2197031e-39
4443.7202 -3951.6299 1190.6899 9.2197031e-39
4500.8501 -3934.52 1206 9.2197031e-39
4497.7402 -3211.8 1205.17 9.2197031e-39
4491.52 2072.8999 1203.5 9.2197031e-39
4546.52 -4477.0303 1218.24 9.2197031e-39
4574.6299 -3928.6599 1225.77 9.2197031e-39
4626.98 -4477.8101 1239.8 9.2197031e-39
4701.5498 2093.49 1259.78 9.2197031e-39
4707.79 -4477.4199 1261.45 9.2197031e-39
4740.8198 2061.5 1270.3 9.2197031e-39
4787.4102 -4474.6201 1282.78 9.2197031e-39
5410.46 -4463.77 1449.73 9.2197031e-39
5476.2798 -3710.3899 1467.36 9.2197031e-39
5501.2402 -4457.2197 1474.05 9.2197031e-39
5517.3999 -4397.98 1478.38 9.2197031e-39
5508.6699 -4322.3896 1476.04 9.2197031e-39
5506.4199 -4252.0898 1475.4399 9.2197031e-39
5560.6401 -3326.1499 1489.97 9.2197031e-39
5557.96 -3265.29 1489.25 9.2197031e-39
5573.9399 -3701.8 1493.53 9.2197031e-39
5575.8999 -3639.95 1494.0601 9.2197031e-39
5566.9102 -3572.8501 1491.65 9.2197031e-39
5565.8501 -3510.6001 1491.36 9.2197031e-39
5565.02 -3449.03 1491.14 9.2197031e-39
5562.71 -3387.25 1490.52 9.2197031e-39
5590.8398 -3221.3601 1498.0601 9.2197031e-39
5766.46 1602.3601 1545.12 9.2197031e-39
6730.5298 -819.44397 1803.4399 9.2197031e-39
6902.1099 -883.841 1849.42 9.2197031e-39
6887.1802 1375.02 1845.41 9.2197031e-39
6906.27 1314.36 1850.53 9.2197031e-39
7127.98 -3340.3999 1909.9399 9.2197031e-39
7125.7598 -3197.1101 1909.34 9.2197031e-39
7118.9702 -1016.328 1907.52 9.2197031e-39
7126.1899 -953.26599 1909.46 9.2197031e-39
7121.3701 -446.909 1908.16 9.2197031e-39
7118.9702 -383.672 1907.52 9.2197031e-39
7131.9399 -3856.1001 1911 9.2197031e-39
7132.4902 -3781.3101 1911.15 9.2197031e-39
7136.7798 -3708.6599 1912.29 9.2197031e-39
7130.5298 -3632.05 1910.62 9.2197031e-39
7130.71 -3558.71 1910.67 9.2197031e-39
7130.1899 -3485.5901 1910.53 9.2197031e-39
7130.79 -3413.4099 1910.6899 9.2197031e-39
7136.3101 -3271.98 1912.17 9.2197031e-39
7151.02 -1852.77 1916.11 9.2197031e-39
7146.1299 -1786.99 1914.8 9.2197031e-39
7147.3799 -1722.37 1915.13 9.2197031e-39
7148.0698 -1657.801 1915.3199 9.2197031e-39
7151.0801 -1593.668 1916.12 9.2197031e-39
7345.3101 -3202.5801 1968.17 9.2197031e-39
7548.0298 -3198.3999 2022.49 9.2197031e-39
7571.3301 -295.75699 2028.73 9.2197031e-39
7567.6401 -228.461 2027.74 9.2197031e-39
7571.0898 -160.64301 2028.67 9.2197031e-39
7573.96 -92.72699 2029.4399 9.2197031e-39
7718.04 -3179.9199 2068.04 9.2197031e-39
7722.0298 -3105.9299 2069.1101 9.2197031e-39
8038.3901 -3128.05 2153.8799 9.2197031e-39
8432.7402 -3167.51 2259.55 9.2197031e-39
