# .PCD v0.7 - Point Cloud Data file format
VERSION 0.7
FIELDS x y z rgb
SIZE 4 4 4 4
TYPE F F F F
COUNT 1 1 1 1
WIDTH 317
HEIGHT 1
VIEWPOINT 0 0 0 1 0 0 0
POINTS 317
DATA ascii
252 -1210 134 9.2197031e-39
257.134 -1208.9771 135.37601 9.2197031e-39
264.71051 -1202.8505 137.40549 9.2197031e-39
272.42899 -1205.631 139.474 9.2197031e-39
272.668 -768.14246 139.53799 9.2197031e-39
269.65799 -451.11798 138.731 9.2197031e-39
272.98801 -454.61499 139.62399 9.2197031e-39
272.6395 -442.94852 139.53 9.2197031e-39
252.00101 1305 134 9.2197031e-39
268.12601 1312.9301 138.321 9.2197031e-39
277.23801 -1198.4299 140.763 9.2197031e-39
281.927 -1191.189 142.019 9.2197031e-39
286.79199 -1188.9 143.32201 9.2197031e-39
291.48499 -1184.573 144.58 9.2197031e-39
295.88 -1177.2151 145.758 9.2197031e-39
298.97601 -1155.877 146.58701 9.2197031e-39
299.586 -1111.634 146.75101 9.2197031e-39
290.065 -974.935 144.19901 9.2197031e-39
289.94299 -944.76904 144.16701 9.2197031e-39
283.27899 -804.45099 142.381 9.2197031e-39
279.841 -792.85803 141.46001 9.2197031e-39
283.24701 -793.31201 142.373 9.2197031e-39
277.27301 -786.16998 140.772 9.2197031e-39
282.86301 -781.20502 142.27 9.2197031e-39
282.80499 -772.07001 142.254 9.2197031e-39
282.595 -762.95001 142.198 9.2197031e-39
304.12 -765.94104 147.9655 9.2197031e-39
285.89099 -755.06055 143.08099 9.2197031e-39
294.5145 -756.06049 145.39185 9.2197031e-39
303.646 -759.78497 147.83899 9.2197031e-39
284.62601 -749.21149 142.742 9.2197031e-39
303.19766 -745.65167 147.71834 9.2197031e-39
306.293 -479.461 148.548 9.2197031e-39
308.7695 -466.36551 149.21149 9.2197031e-39
310.93201 -462.96802 149.791 9.2197031e-39
287.66867 -451.8707 143.55733 9.2197031e-39
293.00201 -451.966 144.98599 9.2197031e-39
309.414 -454.68851 149.384 9.2197031e-39
311.70001 -457.85602 149.99699 9.2197031e-39
277.7825 -444.77951 140.90851 9.2197031e-39
284.24399 -442.86899 142.63966 9.2197031e-39
295.0162 -447.80219 145.526 9.2197031e-39
305.125 -443.65576 148.23474 9.2197031e-39
277.23401 -435.056 140.76199 9.2197031e-39
284.28201 -435.702 142.64966 9.2197031e-39
305.79852 -438.35199 148.4155 9.2197031e-39
284.19901 1309.71 142.62801 9.2197031e-39
300.52301 1318.34 147.002 9.2197031e-39
315.20801 -462.80701 150.937 9.2197031e-39
311.828 -442.759 150.03101 9.2197031e-39
312.23099 -437.55701 150.13901 9.2197031e-39
332.349 1305.1801 155.52901 9.2197031e-39
316.62399 1315.83 151.31599 9.2197031e-39
365.397 1319.41 164.38499 9.2197031e-39
381.63901 1319.3101 168.737 9.2197031e-39
349.26401 1321.36 160.062 9.2197031e-39
398.646 1329.03 173.29401 9.2197031e-39
414.901 1327.64 177.649 9.2197031e-39
431.884 1334.05 182.2 9.2197031e-39
449.08801 1341.3101 186.81 9.2197031e-39
1353.33 1058.97 429.099 9.2197031e-39
1334.4399 1061.39 424.039 9.2197031e-39
1321.46 1072.77 420.561 9.2197031e-39
1425.8199 1042.28 448.52301 9.2197031e-39
1427.26 1074.66 448.909 9.2197031e-39
1413.64 1760.28 445.26099 9.2197031e-39
1462.04 588.79004 458.228 9.2197031e-39
1446.41 594.12 454.04099 9.2197031e-39
1436.3 604.85999 451.332 9.2197031e-39
1434.3 624 450.79501 9.2197031e-39
1432.85 1699.2 450.40701 9.2197031e-39
1460.48 1704.26 457.811 9.2197031e-39
1452.23 1786.95 455.60001 9.2197031e-39
1434.65 1855.7 450.89001 9.2197031e-39
1483.27 508.07996 463.918 9.2197031e-39
1504.3199 507.31006 469.55701 9.2197031e-39
1490.52 534.41003 465.86099 9.2197031e-39
1494.55 558.26001 466.94101 9.2197031e-39
1472.01 577.81006 460.901 9.2197031e-39
1485.45 570.12 464.50299 9.2197031e-39
1496.08 1048.52 467.35001 9.2197031e-39
1471.99 1170.7 460.896 9.2197031e-39
1496.25 1723.8601 467.39499 9.2197031e-39
1517.3 499.17004 473.03601 9.2197031e-39
1534.72 494.68994 477.703 9.2197031e-39
1542.98 1624.3501 479.918 9.2197031e-39
1531.54 1648.8501 476.85101 9.2197031e-39
1512.46 1706.4399 471.73901 9.2197031e-39
1540.0601 1709.6899 479.13501 9.2197031e-39
1544.65 483.68994 480.36301 9.2197031e-39
1573.39 488.16003 488.064 9.2197031e-39
1571.27 1628.8 487.49799 9.2197031e-39
1617.67 1055.4 499.931 9.2197031e-39
1606.21 1227.09 496.85901 9.2197031e-39
1653.4 -3858.6201 509.50299 9.2197031e-39
1651.5699 -3779.3999 509.013 9.2197031e-39
1651.78 -3707.73 509.07001 9.2197031e-39
1648.49 -3564.22 508.18701 9.2197031e-39
1643.97 866.43994 506.97601 9.2197031e-39
1647.42 1061.87 507.901 9.2197031e-39
1623.1801 1628.24 501.40601 9.2197031e-39
1620.72 1667.6799 500.74799 9.2197031e-39
1680.59 -4452.8896 516.78998 9.2197031e-39
1658.85 -4297.48 510.96399 9.2197031e-39
1665.72 -4222.5098 512.80499 9.2197031e-39
1661.45 -4122.75 511.66199 9.2197031e-39
1658.64 -4030.72 510.90701 9.2197031e-39
1656.3 -3943.6001 510.28101 9.2197031e-39
1669.11 -3542.54 513.71301 9.2197031e-39
1672.25 1061.9301 514.55603 9.2197031e-39
1662.5699 1485.5601 511.95999 9.2197031e-39
1710.77 -3766.27 524.87701 9.2197031e-39
1701.3101 -3544.78 522.34198 9.2197031e-39
1729.65 -3538.6699 529.935 9.2197031e-39
1697.84 1062.41 521.41199 9.2197031e-39
1762.98 -3541.98 538.86499 9.2197031e-39
1739.48 1051.4 532.56897 9.2197031e-39
1789.1 -3530.8501 545.86499 9.2197031e-39
1831.08 -3549.22 557.112 9.2197031e-39
1854.92 -3533.1001 563.50201 9.2197031e-39
1889.73 -3536.6899 572.828 9.2197031e-39
1923.24 -3537.29 581.80798 9.2197031e-39
1957.39 -3538.3701 590.95801 9.2197031e-39
1986.64 -3530.52 598.79401 9.2197031e-39
1976.28 -3056.98 596.01898 9.2197031e-39
2023.05 -3534.25 608.54999 9.2197031e-39
2023.59 -3371 608.69702 9.2197031e-39
2022.4399 -3266.8701 608.38702 9.2197031e-39
1995.54 -3177.8701 601.17999 9.2197031e-39
2008.23 -3149 604.58002 9.2197031e-39
1991.75 -3034.0801 600.16498 9.2197031e-39
2012.2 -3018.27 605.64502 9.2197031e-39
2024.29 -2991.1699 608.883 9.2197031e-39
2053.9399 -3528.25 616.828 9.2197031e-39
2030.6801 -3330.02 610.59497 9.2197031e-39
2046.76 -2978.22 614.90302 9.2197031e-39
2088.55 -3527.8 626.10199 9.2197031e-39
2074.55 -2972.0801 622.35101 9.2197031e-39
2099.3401 -2961.75 628.99298 9.2197031e-39
2098.8999 -2919.5 628.875 9.2197031e-39
2125.8301 -2911.9199 636.09198 9.2197031e-39
2148.3799 -2898.71 642.13501 9.2197031e-39
2171.1599 -443.63098 648.23602 9.2197031e-39
2152.4399 -427.867 643.22198 9.2197031e-39
2153.8101 -410.41699 643.58698 9.2197031e-39
2150.21 -393.452 642.625 9.2197031e-39
2147.4399 -376.42401 641.88202 9.2197031e-39
2159.8601 -357.47998 645.211 9.2197031e-39
2181.6299 -2898.0901 651.04303 9.2197031e-39
2196.49 -459.23102 655.02399 9.2197031e-39
2247.01 -2934.49 668.56097 9.2197031e-39
2223.96 -2867.3301 662.38397 9.2197031e-39
2237.1201 -2842.8 665.91101 9.2197031e-39
2244.8401 -473.81299 667.98102 9.2197031e-39
2279 -2850.3701 677.13397 9.2197031e-39
2323.8301 -2860.27 689.14398 9.2197031e-39
2324.8301 -506.3056 689.414 9.2197031e-39
2293.1001 -489.25702 680.90997 9.2197031e-39
2347.75 -524.23322 695.55402 9.2197031e-39
2382.3899 -2883.8999 704.836 9.2197031e-39
2399.8899 -561.18591 709.526 9.2197031e-39
2376.3101 -542.41071 703.20697 9.2197031e-39
2436.0901 -2900.95 719.224 9.2197031e-39
2424.3701 -600 716.08398 9.2197031e-39
2406.8999 -580.53113 711.40302 9.2197031e-39
2461.55 -2887.49 726.04602 9.2197031e-39
2451.3301 -619.8703 723.30798 9.2197031e-39
2545.6001 1222.02 748.56702 9.2197031e-39
2538.52 1249.45 746.672 9.2197031e-39
2627.21 1252.99 770.43597 9.2197031e-39
2679.8501 -3070 784.53998 9.2197031e-39
2681.53 1227.42 784.98999 9.2197031e-39
2665.26 1248.71 780.63 9.2197031e-39
2743.5601 338.84497 801.612 9.2197031e-39
2745.6001 1241.41 802.15698 9.2197031e-39
2810.0801 1254.37 819.435 9.2197031e-39
2859.05 1254.98 832.55603 9.2197031e-39
2935.3101 383.72803 852.98999 9.2197031e-39
2933.04 1272.1801 852.383 9.2197031e-39
2995.4399 1279.9 869.10199 9.2197031e-39
3070.98 -1088.376 889.34198 9.2197031e-39
3065.46 1291.53 887.86298 9.2197031e-39
3109.1399 -3456.4299 899.56702 9.2197031e-39
3098.77 -3396.78 896.78998 9.2197031e-39
3095.3999 -3345.04 895.88501 9.2197031e-39
3094.21 -3296.28 895.56799 9.2197031e-39
3106.0601 -3260.46 898.74402 9.2197031e-39
3081.6599 -1063.984 892.20599 9.2197031e-39
3111.02 -3218.6699 900.07098 9.2197031e-39
3124.23 -3184.8701 903.61298 9.2197031e-39
3265.23 -654.45148 941.39203 9.2197031e-39
3312.6399 -3306.25 954.09698 9.2197031e-39
3310.04 -682.9024 953.39899 9.2197031e-39
3347.3701 -34.948975 963.40198 9.2197031e-39
3377.74 -58.479004 971.539 9.2197031e-39
3515.3501 26.161011 1008.41 9.2197031e-39
3585.23 -901.90698 1027.14 9.2197031e-39
3583.8 -871.46802 1026.75 9.2197031e-39
3569.5801 -840.17102 1022.94 9.2197031e-39
3598.8501 -964.177 1030.79 9.2197031e-39
3596.02 -933.35101 1030.03 9.2197031e-39
3665.1499 1278.8199 1048.55 9.2197031e-39
3692.73 -3588.96 1055.9399 9.2197031e-39
3707.4199 -818.79797 1059.88 9.2197031e-39
3702.71 1103.96 1058.61 9.2197031e-39
3696.02 1139.02 1056.8199 9.2197031e-39
3689.01 1174.08 1054.9399 9.2197031e-39
3680.8101 1208.7 1052.75 9.2197031e-39
3673.1499 1243.76 1050.6899 9.2197031e-39
3712.74 -1008.211 1061.3 9.2197031e-39
3735.8999 968.28003 1067.51 9.2197031e-39
3737.55 1006.61 1067.95 9.2197031e-39
3725.6299 1038.87 1064.76 9.2197031e-39
3717.8101 1073.15 1062.66 9.2197031e-39
3777.6201 -791.28796 1078.6899 9.2197031e-39
3770.4099 -759.03601 1076.76 9.2197031e-39
3750.76 937.53003 1071.49 9.2197031e-39
3825.79 783.31995 1091.59 9.2197031e-39
3829.1499 1410.75 1092.49 9.2197031e-39
3889.6201 269.43597 1108.7 9.2197031e-39
3881.21 302.03302 1106.4399 9.2197031e-39
3882.8401 337.20502 1106.88 9.2197031e-39
3874.8101 369.97198 1104.73 9.2197031e-39
3861.3701 686.64001 1101.13 9.2197031e-39
3874.4099 839.56006 1104.62 9.2197031e-39
3920.5 138.23999 1116.97 9.2197031e-39
3898.05 202.33099 1110.96 9.2197031e-39
3901.52 237.62097 1111.89 9.2197031e-39
3894.48 410.42999 1110 9.2197031e-39
3905.3701 448.91003 1112.92 9.2197031e-39
3903.8201 484.07996 1112.5 9.2197031e-39
3904.1299 665.08997 1112.59 9.2197031e-39
3928.6399 899.35999 1119.15 9.2197031e-39
3932.3 -98.388 1120.13 9.2197031e-39
3939.4099 -63.487976 1122.04 9.2197031e-39
3932.1299 175.14203 1120.09 9.2197031e-39
3944.05 641.93994 1123.28 9.2197031e-39
3983.8601 618.16003 1133.95 9.2197031e-39
3983.1201 1000 1133.75 9.2197031e-39
4073.96 1593.28 1158.09 9.2197031e-39
4056.1599 1628.22 1153.3199 9.2197031e-39
4248.1299 1071.49 1204.76 9.2197031e-39
4260.3999 1943 1208.05 9.2197031e-39
4274.2598 633.47998 1211.76 9.2197031e-39
4271.1001 672.10999 1210.92 9.2197031e-39
4404.6899 -3898.8799 1246.71 9.2197031e-39
4451.6299 -3876.28 1259.29 9.2197031e-39
4514.02 -3864.98 1276.01 9.2197031e-39
4494.7202 2198.26 1270.83 9.2197031e-39
4549.9702 -1264.994 1285.64 9.2197031e-39
4565.3101 -1187.89 1289.75 9.2197031e-39
4574.98 -3851.6299 1292.34 9.2197031e-39
4570.71 -1228.366 1291.2 9.2197031e-39
4571.0601 -1149.021 1291.29 9.2197031e-39
4579.5801 2199.5601 1293.5699 9.2197031e-39
4637.6201 -3838.5801 1309.12 9.2197031e-39
4674.0601 -4373.8501 1318.89 9.2197031e-39
4690.0698 -3817.1899 1323.1801 9.2197031e-39
4747.7402 -4369 1338.63 9.2197031e-39
4785.0801 2219.8301 1348.64 9.2197031e-39
4825.2402 2133.5 1359.39 9.2197031e-39
4833.7598 -4373.0601 1361.6801 9.2197031e-39
4899.6401 -4359.23 1379.33 9.2197031e-39
4878.5898 2221.3999 1373.6899 9.2197031e-39
5525 -4351.8701 1546.9 9.2197031e-39
5605.71 -3800 1568.52 9.2197031e-39
5609.7798 -3738.21 1569.61 9.2197031e-39
5610.6802 -3675.1499 1569.85 9.2197031e-39
5603.29 -3608.01 1567.87 9.2197031e-39
5616.4902 -4346.0303 1571.41 9.2197031e-39
5643.8301 -4294.6699 1578.74 9.2197031e-39
5635.0698 -4219.1299 1576.39 9.2197031e-39
5629.5298 -4146.71 1574.9 9.2197031e-39
5629.73 -4078.9199 1574.96 9.2197031e-39
5630.8501 -4012.4399 1575.26 9.2197031e-39
5623.8101 -3941.5701 1573.37 9.2197031e-39
5621.8101 -3874.6399 1572.83 9.2197031e-39
5685.0098 -3404.3501 1589.77 9.2197031e-39
5684.1299 -3342.8899 1589.53 9.2197031e-39
5682.6299 -3281.6499 1589.13 9.2197031e-39
5679.6401 -3220.23 1588.33 9.2197031e-39
5676.9102 -3159.49 1587.6 9.2197031e-39
5694.1099 -3595.7 1592.21 9.2197031e-39
5694.3101 -3533.03 1592.26 9.2197031e-39
5686.1201 -3466.5 1590.0699 9.2197031e-39
5695.6299 -3109.1599 1592.62 9.2197031e-39
7252.0898 -3166.3101 2009.67 9.2197031e-39
7243.9399 -852.77698 2007.48 9.2197031e-39
7265.8599 -3757.29 2013.36 9.2197031e-39
7268.2002 -3683.26 2013.98 9.2197031e-39
7260.8999 -3605.5901 2012.03 9.2197031e-39
7263.5801 -3532.79 2012.75 9.2197031e-39
7263.77 -3459.4399 2012.8 9.2197031e-39
7264.1602 -3386.6699 2012.9 9.2197031e-39
7253.9102 -3310.25 2010.15 9.2197031e-39
7254.7002 -3238.6799 2010.37 9.2197031e-39
7257.02 -3097.1101 2010.99 9.2197031e-39
7427.1099 -3085.45 2056.5601 9.2197031e-39
7626.9199 -3080.79 2110.1001 9.2197031e-39
7698.23 620.96997 2129.21 9.2197031e-39
7701.5498 552.62 2130.1001 9.2197031e-39
7770.1499 -2979.6101 2148.48 9.2197031e-39
7808.77 -3066.6899 2158.8301 9.2197031e-39
7796.4102 -2913.5901 2155.52 9.2197031e-39
7803.4702 -2476.8999 2157.4099 9.2197031e-39
7803.9399 -2405.01 2157.54 9.2197031e-39
7799.0698 -2332.1699 2156.23 9.2197031e-39
7803.9302 -2261.8398 2157.53 9.2197031e-39
7796.8301 -2189.1602 2155.6299 9.2197031e-39
7791.9199 -2117.3101 2154.3101 9.2197031e-39
7791.1299 -2046.59 2154.1001 9.2197031e-39
7796.3701 -1977.2 2155.51 9.2197031e-39
7826.7598 -2848.6499 2163.6499 9.2197031e-39
7837.0498 -2777.72 2166.4099 9.2197031e-39
7834.5898 -2703.4199 2165.75 9.2197031e-39
7824.9199 -2627.5801 2163.1599 9.2197031e-39
7817.3501 -2552.79 2161.1299 9.2197031e-39
