# .PCD v0.7 - Point Cloud Data file format
VERSION 0.7
FIELDS x y z rgb
SIZE 4 4 4 4
TYPE F F F F
COUNT 1 1 1 1
WIDTH 325
HEIGHT 1
VIEWPOINT 0 0 0 1 0 0 0
POINTS 325
DATA ascii
252 -1212 134 9.2197031e-39
264.78198 -1206.35 137.425 9.2197031e-39
257.05801 -1199.9771 135.355 9.2197031e-39
272.19299 -1198.635 139.411 9.2197031e-39
272.47852 -766.65552 139.48749 9.2197031e-39
260.716 -83.078979 136.33501 9.2197031e-39
256.45901 -71.02002 135.19501 9.2197031e-39
252 -58 134 9.2197031e-39
265.806 -54.187012 137.69901 9.2197031e-39
270.30499 -57.330994 138.905 9.2197031e-39
277.32199 -1200.428 140.785 9.2197031e-39
284.46948 -1192.041 142.70001 9.2197031e-39
293.21899 -1174.4121 145.045 9.2197031e-39
299.229 -1158.865 146.655 9.2197031e-39
299.957 -1115.615 146.85001 9.2197031e-39
290.569 -979.90698 144.33501 9.2197031e-39
289.83401 -943.776 144.138 9.2197031e-39
281.12601 -801.75903 141.804 9.2197031e-39
282.52399 -793.94055 142.179 9.2197031e-39
277.13901 -785.17999 140.73599 9.2197031e-39
284.03699 -788.09802 142.584 9.2197031e-39
310.84698 -782.078 149.76801 9.2197031e-39
304.28299 -771.66901 148.009 9.2197031e-39
284.09024 -763.3905 142.59875 9.2197031e-39
298.36301 -762.04102 146.423 9.2197031e-39
302.55402 -765.935 147.5455 9.2197031e-39
287.1795 -757.83069 143.42625 9.2197031e-39
293.80832 -756.10669 145.20233 9.2197031e-39
304.37201 -755.30603 148.033 9.2197031e-39
289.245 -749.09497 143.98 9.2197031e-39
300.89401 -739.07397 147.101 9.2197031e-39
308.23499 -462.845 149.06799 9.2197031e-39
310.539 -463.88202 149.685 9.2197031e-39
287.8905 -453.64398 143.617 9.2197031e-39
293.00201 -451.966 144.98599 9.2197031e-39
309.29501 -456.79901 149.35201 9.2197031e-39
288.755 -441.504 143.84801 9.2197031e-39
295.82123 -444.50925 145.74176 9.2197031e-39
303.17502 -441.63135 147.71233 9.2197031e-39
289.37299 -432.40802 144.01401 9.2197031e-39
298.08899 -438.918 146.349 9.2197031e-39
307.13599 -438.80798 148.774 9.2197031e-39
310.82898 -434.87549 149.763 9.2197031e-39
290.7265 -415.3035 144.377 9.2197031e-39
288.30551 -402.03851 143.728 9.2197031e-39
290.13 -405.97501 144.217 9.2197031e-39
287.39099 -392.20599 143.483 9.2197031e-39
302.07999 -106.71701 147.41901 9.2197031e-39
298.75299 -97.325012 146.52699 9.2197031e-39
307.22 -98.246002 148.79601 9.2197031e-39
278.13599 -83.708984 141.00301 9.2197031e-39
291.409 -81.603027 144.56 9.2197031e-39
285.095 -77.126495 142.86749 9.2197031e-39
295.94501 -79.986023 145.77499 9.2197031e-39
274.879 -57.517029 140.13 9.2197031e-39
317.96399 -782.651 151.675 9.2197031e-39
313.28601 -460.776 150.422 9.2197031e-39
316.49799 -456.80298 151.282 9.2197031e-39
314.8945 -444.60449 150.85251 9.2197031e-39
322.27701 -447.46301 152.83099 9.2197031e-39
313.96899 -435.03799 150.60449 9.2197031e-39
314.70801 -190.10901 150.80299 9.2197031e-39
316.92999 -121.70099 151.39799 9.2197031e-39
320.246 -127.25 152.286 9.2197031e-39
314.03101 -112.20901 150.621 9.2197031e-39
311.918 -94.794006 150.05499 9.2197031e-39
332.98801 -98.96701 155.701 9.2197031e-39
1318.26 1067.77 419.70401 9.2197031e-39
1327.42 1050.61 422.15701 9.2197031e-39
1367.55 1080.39 432.91101 9.2197031e-39
1427.47 616.93005 448.965 9.2197031e-39
1423.85 1069.8101 447.996 9.2197031e-39
1429.67 1693.01 449.55701 9.2197031e-39
1417.15 1767.3999 446.20099 9.2197031e-39
1427.03 1894.1499 448.84799 9.2197031e-39
1447.8 595.51001 454.414 9.2197031e-39
1464.14 590.84998 458.79099 9.2197031e-39
1437.6801 606.26001 451.70099 9.2197031e-39
1448.22 1073.63 454.52701 9.2197031e-39
1466.38 1162.5601 459.39301 9.2197031e-39
1458.64 1700.74 457.31699 9.2197031e-39
1449.55 1781.6201 454.883 9.2197031e-39
1438.1 1862.8601 451.81299 9.2197031e-39
1483.27 508.07996 463.918 9.2197031e-39
1496.24 500.16003 467.392 9.2197031e-39
1489.8 533.73999 465.66699 9.2197031e-39
1495.27 558.93005 467.133 9.2197031e-39
1479.04 564.04004 462.785 9.2197031e-39
1472.72 578.48999 461.09 9.2197031e-39
1501.87 1734.3601 468.901 9.2197031e-39
1518.04 499.81006 473.23499 9.2197031e-39
1534.72 494.68994 477.703 9.2197031e-39
1513.92 1072.16 472.13 9.2197031e-39
1539.5 1618.3501 478.98499 9.2197031e-39
1527.13 1641.1001 475.66901 9.2197031e-39
1513.89 1709.05 472.121 9.2197031e-39
1541.03 1711.4199 479.39401 9.2197031e-39
1543.9 483.06006 480.16199 9.2197031e-39
1568.09 483.80005 486.646 9.2197031e-39
1578.34 1640.74 489.39099 9.2197031e-39
1596.8 1214.4 494.33801 9.2197031e-39
1613.3199 1612.22 498.763 9.2197031e-39
1654.5699 -3861.3601 509.81799 9.2197031e-39
1652.1899 -3708.6399 509.17899 9.2197031e-39
1651.45 -3570.51 508.98199 9.2197031e-39
1646 868.57996 507.51999 9.2197031e-39
1625.83 1065.29 502.116 9.2197031e-39
1652.49 1067.91 509.259 9.2197031e-39
1620.21 1666.8301 500.61099 9.2197031e-39
1683.36 -4460.3501 517.53198 9.2197031e-39
1658.85 -4297.48 510.96399 9.2197031e-39
1664.63 -4219.73 512.51398 9.2197031e-39
1663.3 -4127.3701 512.15698 9.2197031e-39
1660.15 -4034.3999 511.311 9.2197031e-39
1657.0699 -3945.4299 510.48801 9.2197031e-39
1655.97 -3789.4099 510.194 9.2197031e-39
1667.39 -3538.96 513.25098 9.2197031e-39
1676.73 1067.17 515.75598 9.2197031e-39
1668.11 1493.75 513.44501 9.2197031e-39
1719.09 -3784.3201 527.10602 9.2197031e-39
1700.4399 -3542.99 522.10699 9.2197031e-39
1712.0601 1078.76 525.22198 9.2197031e-39
1732.77 -3544.8799 530.771 9.2197031e-39
1764.79 -3545.51 539.35101 9.2197031e-39
1732.03 1072.14 530.573 9.2197031e-39
1789.5601 -3531.73 545.98901 9.2197031e-39
1831.08 -3549.22 557.112 9.2197031e-39
1856.83 -3536.5801 564.01202 9.2197031e-39
1888.76 -3534.96 572.56897 9.2197031e-39
1922.75 -3536.4299 581.677 9.2197031e-39
1956.4 -3536.6499 590.69202 9.2197031e-39
1990.67 -3537.3401 599.87598 9.2197031e-39
2024.0699 -3535.9399 608.82397 9.2197031e-39
2054.98 -3529.9399 617.10602 9.2197031e-39
2088.55 -3527.8 626.10199 9.2197031e-39
2128.0901 -3534.4399 636.69598 9.2197031e-39
2163.55 -3533.96 646.19897 9.2197031e-39
2169.23 -443.78799 647.71997 9.2197031e-39
2140.8999 -428.91299 640.12799 9.2197031e-39
2152.8401 -410.513 643.32898 9.2197031e-39
2150.21 -393.452 642.625 9.2197031e-39
2145.52 -376.64999 641.367 9.2197031e-39
2162.74 -357.11401 645.98102 9.2197031e-39
2199.1499 -3533.0601 655.73798 9.2197031e-39
2196.49 -459.23102 655.02399 9.2197031e-39
2231.5601 -3526.8301 664.42102 9.2197031e-39
2247.74 -473.63 668.75598 9.2197031e-39
2272.98 -3533.26 675.52002 9.2197031e-39
2320.3401 -3547.25 688.21002 9.2197031e-39
2322.8999 -506.39279 688.89697 9.2197031e-39
2291.1699 -489.362 680.39301 9.2197031e-39
2353.1499 -3539.7 697.00098 9.2197031e-39
2346.78 -524.26807 695.29498 9.2197031e-39
2393.54 -3542.1699 707.82397 9.2197031e-39
2401.1001 -580.5835 709.84998 9.2197031e-39
2395.0601 -561.27307 708.23199 9.2197031e-39
2380.1699 -542.30603 704.242 9.2197031e-39
2421.47 -600 715.30701 9.2197031e-39
2455.8899 -3573.49 724.53101 9.2197031e-39
2460.99 -619.95758 725.896 9.2197031e-39
2520.72 -3606.26 741.901 9.2197031e-39
2540.23 1217.76 747.13 9.2197031e-39
2535.48 1246.98 745.85602 9.2197031e-39
2636.1699 -3703.04 772.83502 9.2197031e-39
2659.8201 1244.54 779.17401 9.2197031e-39
2627.21 1252.99 770.43597 9.2197031e-39
2683.0901 1228.6 785.409 9.2197031e-39
2733.5801 335.08301 798.93701 9.2197031e-39
2754.25 1247.8 804.47498 9.2197031e-39
2799.6101 -3857.02 816.63098 9.2197031e-39
2806.9099 1252.08 818.58698 9.2197031e-39
2852.1599 -3865.51 830.711 9.2197031e-39
2870.99 1263.48 835.755 9.2197031e-39
2891.3799 -3856.45 841.22101 9.2197031e-39
2923.1201 -3837.8101 849.72498 9.2197031e-39
2959.1899 -3824.1201 859.388 9.2197031e-39
2938.95 385.06403 853.966 9.2197031e-39
2935.4399 1273.85 853.026 9.2197031e-39
3000.98 -3816.76 870.58698 9.2197031e-39
3021.1699 -3568.71 875.99701 9.2197031e-39
3001.0801 1283.76 870.612 9.2197031e-39
3048.6699 -3815.5901 883.36603 9.2197031e-39
3044.0601 -3541.4399 882.12903 9.2197031e-39
3071.9299 -1088.541 889.59698 9.2197031e-39
3069.51 1294.25 888.948 9.2197031e-39
3103.73 -3821.8999 898.11902 9.2197031e-39
3106.3101 -3503.8701 898.80902 9.2197031e-39
3104.97 -3452.27 898.45001 9.2197031e-39
3102.98 -3400.9099 897.91699 9.2197031e-39
3092.5701 -3342.3101 895.12799 9.2197031e-39
3092.0801 -3294.25 894.99597 9.2197031e-39
3108.9399 -3263.1399 899.513 9.2197031e-39
3110.3 -3218.01 899.87799 9.2197031e-39
3079.76 -1063.672 891.69501 9.2197031e-39
3115.6299 -3779.1899 901.30701 9.2197031e-39
3111.73 -3719.8301 900.263 9.2197031e-39
3113.8201 -3562.78 900.823 9.2197031e-39
3124.23 -3184.8701 903.61298 9.2197031e-39
3267.1599 -654.48639 941.90997 9.2197031e-39
3314.8501 -3308.2 954.68701 9.2197031e-39
3303.28 -682.71912 951.58801 9.2197031e-39
3357.73 -61.945007 966.17798 9.2197031e-39
3353.0801 -33.906982 964.93103 9.2197031e-39
3509.6499 25.067993 1006.88 9.2197031e-39
3586.2 -901.995 1027.4 9.2197031e-39
3586.6899 -871.70398 1027.53 9.2197031e-39
3572.47 -840.38098 1023.72 9.2197031e-39
3599.8101 -964.28198 1031.04 9.2197031e-39
3599.8701 -933.73499 1031.0601 9.2197031e-39
3668.01 1240.99 1049.3199 9.2197031e-39
3660.8899 1276.48 1047.41 9.2197031e-39
3701.6101 -3596.6699 1058.3199 9.2197031e-39
3707.0601 1106.11 1059.78 9.2197031e-39
3700.3701 1141.21 1057.99 9.2197031e-39
3685.5601 1172.3 1054.02 9.2197031e-39
3683.3999 1210.0601 1053.4399 9.2197031e-39
3735.3501 -1702.53 1067.36 9.2197031e-39
3721.3799 -1009.229 1063.62 9.2197031e-39
3713.21 -819.164 1061.4301 9.2197031e-39
3739.4399 969.87 1068.46 9.2197031e-39
3734.02 1004.98 1067 9.2197031e-39
3719.48 1035.96 1063.11 9.2197031e-39
3713.4399 1071.03 1061.49 9.2197031e-39
3757.24 -1744.1899 1073.23 9.2197031e-39
3750.0601 -1672.73 1071.3 9.2197031e-39
3771.3799 -759.08002 1077.01 9.2197031e-39
3745.4299 935.18005 1070.0601 9.2197031e-39
3817.28 -1799.29 1089.3101 9.2197031e-39
3783.1101 -1648.25 1080.16 9.2197031e-39
3783.4099 -791.60199 1080.24 9.2197031e-39
3816.74 779.81995 1089.17 9.2197031e-39
3850.46 -1633.14 1098.2 9.2197031e-39
3826.6001 1409.3101 1091.8101 9.2197031e-39
3893.4199 305.06702 1109.72 9.2197031e-39
3883.78 337.44702 1107.13 9.2197031e-39
3886.03 372.97601 1107.73 9.2197031e-39
3860.45 686.31995 1100.88 9.2197031e-39
3881.6201 842.43005 1106.55 9.2197031e-39
3895.4099 -1610.6899 1110.25 9.2197031e-39
3929.99 140.14801 1119.51 9.2197031e-39
3907.5 204.40997 1113.49 9.2197031e-39
3905.3 238.487 1112.9 9.2197031e-39
3901.8501 272.35999 1111.98 9.2197031e-39
3900.0801 411.97998 1111.5 9.2197031e-39
3905.3701 448.91003 1112.92 9.2197031e-39
3908.46 485.45996 1113.75 9.2197031e-39
3904.1299 665.08997 1112.59 9.2197031e-39
3923.25 897.16003 1117.71 9.2197031e-39
3945.7 -96.561005 1123.72 9.2197031e-39
3948.01 -62.234985 1124.34 9.2197031e-39
3932.1299 175.14203 1120.09 9.2197031e-39
3944.05 641.93994 1123.28 9.2197031e-39
3978.6101 -1597.7639 1132.54 9.2197031e-39
3991.23 620.56006 1135.92 9.2197031e-39
3982.23 999.62 1133.51 9.2197031e-39
4054.3601 -1581.4771 1152.84 9.2197031e-39
4073.96 1593.28 1158.09 9.2197031e-39
4057 1628.71 1153.55 9.2197031e-39
4124.48 -1562.495 1171.63 9.2197031e-39
4245.4399 1070.37 1204.04 9.2197031e-39
4271.4902 632.63 1211.02 9.2197031e-39
4269.2598 671.52002 1210.42 9.2197031e-39
4271.9302 1950.3101 1211.14 9.2197031e-39
4396.2598 -3892.1799 1244.45 9.2197031e-39
4463.2002 -3885.3101 1262.39 9.2197031e-39
4513.25 -3864.3899 1275.8 9.2197031e-39
4498.79 2200.9399 1271.92 9.2197031e-39
4559.52 -1266.4719 1288.2 9.2197031e-39
4578.1099 -3853.98 1293.1801 9.2197031e-39
4567.8398 -1227.949 1290.4301 9.2197031e-39
4572.0098 -1188.803 1291.54 9.2197031e-39
4571.0601 -1149.021 1291.29 9.2197031e-39
4577.9399 2198.5 1293.13 9.2197031e-39
4636.04 -3837.4199 1308.7 9.2197031e-39
4671.8198 -4371.9399 1318.29 9.2197031e-39
4700.3501 -3824.6499 1325.9301 9.2197031e-39
4751.4902 -4372.1499 1339.63 9.2197031e-39
4781.77 2217.77 1347.75 9.2197031e-39
4837.54 -4376.1699 1362.6899 9.2197031e-39
4831.0898 2137 1360.96 9.2197031e-39
4881.9199 2223.4399 1374.58 9.2197031e-39
4902.6899 -4361.6899 1380.15 9.2197031e-39
5527.3901 -4353.5703 1547.54 9.2197031e-39
5607.25 -3736.74 1568.9399 9.2197031e-39
5608.3799 -3610.8701 1569.24 9.2197031e-39
5618.8901 -4347.71 1572.05 9.2197031e-39
5646.25 -4296.3203 1579.38 9.2197031e-39
5637.5 -4220.7598 1577.04 9.2197031e-39
5632.79 -4148.8604 1575.78 9.2197031e-39
5639.5601 -4085.28 1577.59 9.2197031e-39
5634.9702 -4015.05 1576.36 9.2197031e-39
5635.3999 -3948.78 1576.48 9.2197031e-39
5625.9702 -3877.1699 1573.95 9.2197031e-39
5618.25 -3807.5 1571.88 9.2197031e-39
5615.75 -3678.0601 1571.21 9.2197031e-39
5683.2798 -3403.46 1589.3101 9.2197031e-39
5681.5298 -3341.5701 1588.84 9.2197031e-39
5685.77 -3223.1899 1589.97 9.2197031e-39
5674.27 -3158.24 1586.89 9.2197031e-39
5691.5498 -3594.29 1591.52 9.2197031e-39
5691.7402 -3531.6399 1591.5699 9.2197031e-39
5692.1499 -3469.6699 1591.6801 9.2197031e-39
5687.8599 -3284.24 1590.53 9.2197031e-39
5693.8701 -3108.3401 1592.14 9.2197031e-39
7246.8398 -852.88202 2008.26 9.2197031e-39
7271.1699 -3759.6899 2014.78 9.2197031e-39
7271.7598 -3684.8201 2014.9399 9.2197031e-39
7265.3701 -3607.51 2013.22 9.2197031e-39
7267.1602 -3534.29 2013.71 9.2197031e-39
7260.1802 -3457.98 2011.83 9.2197031e-39
7259.6499 -3384.8799 2011.6899 9.2197031e-39
7258.4302 -3312.01 2011.37 9.2197031e-39
7257.4199 -3239.71 2011.1 9.2197031e-39
7253.9102 -3166.97 2010.16 9.2197031e-39
7258.8398 -3097.76 2011.48 9.2197031e-39
7435.3501 -3088.3 2058.77 9.2197031e-39
7699.6401 552.31995 2129.5901 9.2197031e-39
7703 621.75 2130.49 9.2197031e-39
7809.5898 -2406.3599 2159.05 9.2197031e-39
7800.9502 -2332.6001 2156.73 9.2197031e-39
7797.3198 -2260.3799 2155.76 9.2197031e-39
7793.04 -2188.3599 2154.6201 9.2197031e-39
7797.6099 -2118.46 2155.8401 9.2197031e-39
7793.0298 -2046.95 2154.6101 9.2197031e-39
7801.1299 -1978.0699 2156.78 9.2197031e-39
