# .PCD v0.7 - Point Cloud Data file format
VERSION 0.7
FIELDS x y z rgb
SIZE 4 4 4 4
TYPE F F F F
COUNT 1 1 1 1
WIDTH 318
HEIGHT 1
VIEWPOINT 0 0 0 1 0 0 0
POINTS 318
DATA ascii
252 -1213 134 9.2197031e-39
257.142 -1209.9771 135.37801 9.2197031e-39
267.22198 -1201.7939 138.07899 9.2197031e-39
272.36099 -1203.6321 139.45599 9.2197031e-39
262.064 -1196.9089 136.69701 9.2197031e-39
272.36499 -771.71002 139.457 9.2197031e-39
273.30701 -767.55402 139.709 9.2197031e-39
271.98801 -461.53799 139.356 9.2197031e-39
271.57535 -445.99832 139.24535 9.2197031e-39
252.00101 1307 134 9.2197031e-39
268.06699 1305.9301 138.30499 9.2197031e-39
277.19601 -1197.431 140.75101 9.2197031e-39
281.87701 -1190.1899 142.005 9.2197031e-39
286.733 -1187.901 143.30701 9.2197031e-39
291.35001 -1182.577 144.54401 9.2197031e-39
295.88 -1177.2151 145.758 9.2197031e-39
298.80801 -1153.884 146.54201 9.2197031e-39
298.75299 -1102.675 146.52699 9.2197031e-39
289.25699 -966.979 143.983 9.2197031e-39
289.06799 -936.82104 143.93201 9.2197031e-39
282.17001 -797.20337 142.084 9.2197031e-39
277.54199 -788.151 140.84399 9.2197031e-39
283.28198 -779.09351 142.38199 9.2197031e-39
283.517 -767.85803 142.44501 9.2197031e-39
299.44501 -760.659 146.713 9.2197031e-39
303.44101 -763.89404 147.78334 9.2197031e-39
286.88226 -756.36298 143.34676 9.2197031e-39
295.147 -755.71564 145.56099 9.2197031e-39
303.57401 -755.065 147.819 9.2197031e-39
286.05826 -747.04425 143.12575 9.2197031e-39
304.16602 -746.35205 147.978 9.2197031e-39
299.07501 -737.62598 146.614 9.2197031e-39
303.673 -482.61499 147.84599 9.2197031e-39
307.19998 -466.38297 148.79066 9.2197031e-39
275.276 -456.00201 140.237 9.2197031e-39
287.87067 -456.40567 143.61133 9.2197031e-39
293.11649 -452.79376 145.017 9.2197031e-39
308.80899 -454.43201 149.222 9.2197031e-39
278.83701 -442.431 141.19099 9.2197031e-39
287.255 -443.88599 143.44633 9.2197031e-39
299.345 -444.54401 146.686 9.2197031e-39
306.21066 -442.91617 148.52599 9.2197031e-39
276.63 -439.00702 140.60001 9.2197031e-39
283.035 -434.76566 142.31599 9.2197031e-39
303.797 -439.733 147.879 9.2197031e-39
287.74701 -425.89001 143.578 9.2197031e-39
284.216 1310.71 142.632 9.2197031e-39
300.32101 1310.35 146.94701 9.2197031e-39
314.866 -460.42902 150.845 9.2197031e-39
316.51151 -453.53302 151.28549 9.2197031e-39
313.59799 -438.10699 150.505 9.2197031e-39
316.42099 1309.84 151.26199 9.2197031e-39
332.81201 1316.17 155.65401 9.2197031e-39
348.85999 1313.37 159.95399 9.2197031e-39
365.51501 1321.41 164.416 9.2197031e-39
381.909 1323.3 168.80901 9.2197031e-39
415.069 1329.63 177.694 9.2197031e-39
398.798 1331.03 173.334 9.2197031e-39
432.069 1336.05 182.24899 9.2197031e-39
449.29001 1343.3 186.864 9.2197031e-39
466.53799 1349.39 191.485 9.2197031e-39
1311.33 1056.9301 417.84698 9.2197031e-39
1322.5601 1043.15 420.854 9.2197031e-39
1361.53 1071.33 431.298 9.2197031e-39
1426.96 1043.89 448.83099 9.2197031e-39
1418.17 1061.72 446.47501 9.2197031e-39
1424.6899 1683.3 448.22 9.2197031e-39
1414.96 1762.95 445.61401 9.2197031e-39
1458.53 585.34998 457.289 9.2197031e-39
1447.11 594.81006 454.228 9.2197031e-39
1443.88 612.56995 453.36301 9.2197031e-39
1434.98 624.70996 450.978 9.2197031e-39
1466.38 1162.5601 459.39301 9.2197031e-39
1462.79 1708.6499 458.42899 9.2197031e-39
1452.23 1786.95 455.60001 9.2197031e-39
1431.63 1849.4299 450.08099 9.2197031e-39
1505.78 508.60999 469.95001 9.2197031e-39
1486.1899 510.70996 464.69901 9.2197031e-39
1489.8 533.73999 465.66699 9.2197031e-39
1495.99 559.59998 467.32501 9.2197031e-39
1479.76 564.71997 462.97601 9.2197031e-39
1473.42 579.17004 461.27899 9.2197031e-39
1502.8 1736.1101 469.15201 9.2197031e-39
1528.75 489.59998 476.10501 9.2197031e-39
1518.78 500.44995 473.43301 9.2197031e-39
1528 1121.58 475.90302 9.2197031e-39
1539 1617.49 478.85101 9.2197031e-39
1531.54 1648.8501 476.85101 9.2197031e-39
1509.61 1701.22 470.974 9.2197031e-39
1540.0601 1709.6899 479.13501 9.2197031e-39
1544.65 483.68994 480.36301 9.2197031e-39
1573.39 488.16003 488.064 9.2197031e-39
1572.28 1630.51 487.76901 9.2197031e-39
1612.65 1049.3199 498.586 9.2197031e-39
1653.79 -3859.53 509.608 9.2197031e-39
1651.97 -3780.3101 509.12 9.2197031e-39
1651.78 -3707.73 509.07001 9.2197031e-39
1647.64 -3562.4199 507.95999 9.2197031e-39
1644.25 1058.1 507.052 9.2197031e-39
1617.99 1619.8101 500.01501 9.2197031e-39
1622.26 1670.22 501.159 9.2197031e-39
1680.9399 -4453.8203 516.88202 9.2197031e-39
1659.2 -4298.4102 511.05899 9.2197031e-39
1663.55 -4216.9399 512.22302 9.2197031e-39
1661.8199 -4123.6797 511.76099 9.2197031e-39
1659.39 -4032.5601 511.10901 9.2197031e-39
1656.3 -3943.6001 510.28101 9.2197031e-39
1669.97 -3544.3301 513.94397 9.2197031e-39
1681.2 905.67004 516.95398 9.2197031e-39
1676.51 1037.89 515.69702 9.2197031e-39
1672.54 1500.3101 514.63202 9.2197031e-39
1714.9301 -3775.29 525.99103 9.2197031e-39
1701.75 -3545.6699 522.46002 9.2197031e-39
1726.16 1065.51 528.99902 9.2197031e-39
1730.54 -3540.4399 530.17401 9.2197031e-39
1764.34 -3544.6299 539.22998 9.2197031e-39
1736.1899 1047.74 531.68597 9.2197031e-39
1789.5601 -3531.73 545.98901 9.2197031e-39
1787.22 1045.85 545.36102 9.2197031e-39
1826.86 -3541.3501 555.98297 9.2197031e-39
1856.35 -3535.71 563.88397 9.2197031e-39
1889.73 -3536.6899 572.828 9.2197031e-39
1923.73 -3538.1499 581.94 9.2197031e-39
1953.41 -3531.51 589.89203 9.2197031e-39
1990.55 -3170.5 599.84399 9.2197031e-39
1972.87 -3052.1299 595.10602 9.2197031e-39
1991.6801 -3539.05 600.14697 9.2197031e-39
2023.05 -3534.25 608.54999 9.2197031e-39
2001.65 -3235.55 602.81598 9.2197031e-39
2002.62 -3140.8501 603.07703 9.2197031e-39
1992.9 -3035.6899 600.47302 9.2197031e-39
2008.72 -3013.48 604.71002 9.2197031e-39
2026.05 -2993.55 609.35602 9.2197031e-39
2054.46 -3529.1001 616.96698 9.2197031e-39
2028.92 -3379.3401 610.125 9.2197031e-39
2029.6 -3328.3601 610.30603 9.2197031e-39
2047.9399 -2979.79 615.22198 9.2197031e-39
2088.02 -3526.96 625.961 9.2197031e-39
2069.1399 -2965.04 620.901 9.2197031e-39
2100.55 -2963.3 629.31799 9.2197031e-39
2100.1299 -2921.05 629.20502 9.2197031e-39
2127.0701 -2913.45 636.42401 9.2197031e-39
2149.6399 -2900.23 642.47101 9.2197031e-39
2173.0801 -443.474 648.75201 9.2197031e-39
2149.5601 -428.129 642.44897 9.2197031e-39
2155.73 -410.22501 644.10199 9.2197031e-39
2143.49 -394.18402 640.823 9.2197031e-39
2148.3999 -376.311 642.13898 9.2197031e-39
2152.1899 -358.45502 643.15601 9.2197031e-39
2181.6299 -2898.0901 651.04303 9.2197031e-39
2196.49 -459.23102 655.02399 9.2197031e-39
2250.8501 -2938.99 669.59003 9.2197031e-39
2226.54 -2870.3101 663.07599 9.2197031e-39
2239.73 -2845.75 666.60999 9.2197031e-39
2246.77 -473.69101 668.49799 9.2197031e-39
2275.05 -2845.99 676.07501 9.2197031e-39
2325.1599 -2861.72 689.50098 9.2197031e-39
2326.76 -506.21838 689.93103 9.2197031e-39
2295.03 -489.15201 681.427 9.2197031e-39
2360.3 -523.77948 698.91602 9.2197031e-39
2383.0601 -2884.6201 705.01599 9.2197031e-39
2381.1399 -542.27979 704.5 9.2197031e-39
2426.3 -600 716.60101 9.2197031e-39
2409.8 -580.50488 712.17999 9.2197031e-39
2402.79 -561.13348 710.302 9.2197031e-39
2439.47 -2904.51 720.13098 9.2197031e-39
2462.23 -2888.2 726.229 9.2197031e-39
2451.3301 -619.8703 723.30798 9.2197031e-39
2544.8301 1221.41 748.362 9.2197031e-39
2538.52 1249.45 746.672 9.2197031e-39
2656.72 1242.17 778.341 9.2197031e-39
2625.6699 1251.78 770.02197 9.2197031e-39
2682.6101 -3072.8101 785.27899 9.2197031e-39
2679.1899 1225.66 784.362 9.2197031e-39
2719.96 329.95203 795.289 9.2197031e-39
2749.53 1244.3101 803.21002 9.2197031e-39
2806.1201 1251.5 818.375 9.2197031e-39
2859.8401 1255.55 832.76898 9.2197031e-39
2941.6799 386.065 854.698 9.2197031e-39
2930.6399 1270.5 851.73901 9.2197031e-39
2993.8301 1278.79 868.66998 9.2197031e-39
3071.9299 -1088.541 889.59698 9.2197031e-39
3071.1699 -1062.264 889.39398 9.2197031e-39
3063.8401 1290.4399 887.42902 9.2197031e-39
3104.27 -3451.5701 898.26398 9.2197031e-39
3099.47 -3397.47 896.97803 9.2197031e-39
3096.8101 -3346.4099 896.26398 9.2197031e-39
3096.3501 -3298.3101 896.14099 9.2197031e-39
3107.5 -3261.8 899.12903 9.2197031e-39
3112.47 -3220 900.45898 9.2197031e-39
3124.96 -3185.53 903.80798 9.2197031e-39
3262.3301 -654.39911 940.61603 9.2197031e-39
3326.6001 -3318.5901 957.836 9.2197031e-39
3309.0701 -682.87622 953.14001 9.2197031e-39
3352.1299 -34.080994 964.67603 9.2197031e-39
3372.02 -59.468994 970.00702 9.2197031e-39
3514.3999 25.979004 1008.16 9.2197031e-39
3589.29 -932.67999 1028.22 9.2197031e-39
3583.3101 -901.73303 1026.62 9.2197031e-39
3576.1001 -870.841 1024.6899 9.2197031e-39
3560.9099 -839.54401 1020.62 9.2197031e-39
3596.9299 -963.96802 1030.27 9.2197031e-39
3666.01 1279.29 1048.78 9.2197031e-39
3700.1299 -3595.3899 1057.92 9.2197031e-39
3702.6001 -818.49298 1058.59 9.2197031e-39
3705.3201 1105.25 1059.3101 9.2197031e-39
3699.5 1140.77 1057.75 9.2197031e-39
3691.6101 1175.42 1055.64 9.2197031e-39
3682.54 1209.61 1053.21 9.2197031e-39
3673.1499 1243.76 1050.6899 9.2197031e-39
3713.7 -1008.324 1061.5601 9.2197031e-39
3738.5601 969.47998 1068.22 9.2197031e-39
3733.1399 1004.58 1066.77 9.2197031e-39
3726.51 1039.28 1064.99 9.2197031e-39
3718.6899 1073.5699 1062.9 9.2197031e-39
3764.1201 -790.55499 1075.0699 9.2197031e-39
3768.48 -758.94897 1076.24 9.2197031e-39
3745.4299 935.18005 1070.0601 9.2197031e-39
3813.1201 778.42004 1088.2 9.2197031e-39
3817.26 1404.0699 1089.3101 9.2197031e-39
3893.04 235.67297 1109.61 9.2197031e-39
3892.4399 270.10999 1109.45 9.2197031e-39
3882.1499 302.26599 1106.7 9.2197031e-39
3884.72 337.68903 1107.38 9.2197031e-39
3872.9399 369.47101 1104.23 9.2197031e-39
3892.6201 409.90997 1109.5 9.2197031e-39
3894.2 445.69995 1109.9301 9.2197031e-39
3860.45 686.31995 1100.88 9.2197031e-39
3871.7 838.48999 1103.9 9.2197031e-39
3922.3999 138.62097 1117.48 9.2197031e-39
3929.29 174.54401 1119.33 9.2197031e-39
3899 202.539 1111.21 9.2197031e-39
3906.6101 484.91003 1113.25 9.2197031e-39
3895.8899 662.23999 1110.38 9.2197031e-39
3919.6499 895.68994 1116.74 9.2197031e-39
3934.21 -98.127014 1120.65 9.2197031e-39
3937.49 -63.765991 1121.52 9.2197031e-39
3942.22 641.31995 1122.79 9.2197031e-39
3988.47 619.66003 1135.1801 9.2197031e-39
3983.1201 1000 1133.75 9.2197031e-39
4074.8 1593.76 1158.3199 9.2197031e-39
4057 1628.71 1153.55 9.2197031e-39
4238.2798 1067.37 1202.12 9.2197031e-39
4275.1899 633.76001 1212.01 9.2197031e-39
4271.1001 672.10999 1210.92 9.2197031e-39
4267.8101 1947.7 1210.03 9.2197031e-39
4397.0298 -3892.79 1244.66 9.2197031e-39
4459.3398 -3882.3 1261.35 9.2197031e-39
4517.1299 -3867.3601 1276.84 9.2197031e-39
4494.7202 2198.26 1270.83 9.2197031e-39
4559.52 -1266.4719 1288.2 9.2197031e-39
4563.3901 -1148.046 1289.23 9.2197031e-39
4571.8599 -3849.28 1291.5 9.2197031e-39
4570.71 -1228.366 1291.2 9.2197031e-39
4572.9702 -1188.9341 1291.8 9.2197031e-39
4573.0298 2195.3201 1291.8101 9.2197031e-39
4629.75 -3832.77 1307.01 9.2197031e-39
4667.3501 -4368.1299 1317.09 9.2197031e-39
4697.1899 -3822.3501 1325.08 9.2197031e-39
4748.4902 -4369.6299 1338.83 9.2197031e-39
4777.6299 2215.2 1346.64 9.2197031e-39
4826.96 -4367.46 1359.86 9.2197031e-39
4826.0698 2134 1359.62 9.2197031e-39
4899.6401 -4359.23 1379.33 9.2197031e-39
4871.1001 2216.8401 1371.6801 9.2197031e-39
5525.7998 -4352.4399 1547.11 9.2197031e-39
5606.54 -3800.5 1568.74 9.2197031e-39
5610.6201 -3738.71 1569.84 9.2197031e-39
5610.6802 -3675.1499 1569.85 9.2197031e-39
5604.1401 -3608.49 1568.1 9.2197031e-39
5617.29 -4346.5898 1571.62 9.2197031e-39
5643.8301 -4294.6699 1578.74 9.2197031e-39
5635.0698 -4219.1299 1576.39 9.2197031e-39
5630.3398 -4147.25 1575.12 9.2197031e-39
5629.73 -4078.9199 1574.96 9.2197031e-39
5630.8501 -4012.4399 1575.26 9.2197031e-39
5631.2598 -3946.2 1575.37 9.2197031e-39
5621.8101 -3874.6399 1572.83 9.2197031e-39
5684.1299 -3342.8899 1589.53 9.2197031e-39
5682.6299 -3281.6499 1589.13 9.2197031e-39
5672.6401 -3216.8501 1586.46 9.2197031e-39
5677.79 -3159.8999 1587.84 9.2197031e-39
5694.9702 -3596.1699 1592.4399 9.2197031e-39
5695.1699 -3533.49 1592.49 9.2197031e-39
5686.98 -3466.95 1590.3 9.2197031e-39
5685.8701 -3404.8 1590 9.2197031e-39
5689.4502 -3106.3101 1590.96 9.2197031e-39
7252.8901 -3238 2009.88 9.2197031e-39
7242.9702 -852.742 2007.23 9.2197031e-39
7264.9702 -3756.8999 2013.12 9.2197031e-39
7259.3101 -3679.3501 2011.6 9.2197031e-39
7260.8999 -3605.5901 2012.03 9.2197031e-39
7262.6899 -3532.4199 2012.51 9.2197031e-39
7256.5801 -3456.51 2010.87 9.2197031e-39
7255.1401 -3383.0801 2010.49 9.2197031e-39
7254.8101 -3310.6001 2010.4 9.2197031e-39
7261.2002 -3169.6399 2012.11 9.2197031e-39
7256.1001 -3096.78 2010.74 9.2197031e-39
7430.77 -3086.72 2057.55 9.2197031e-39
7633.3501 -3082.95 2111.8301 9.2197031e-39
7692 551.14001 2127.54 9.2197031e-39
7691.5498 619.88 2127.4199 9.2197031e-39
7762.7598 -2977.27 2146.5 9.2197031e-39
7806 -3065.79 2158.0901 9.2197031e-39
7796.4102 -2913.5901 2155.52 9.2197031e-39
7798.77 -2475.73 2156.1499 9.2197031e-39
7799.2402 -2403.8799 2156.28 9.2197031e-39
7796.2402 -2331.52 2155.47 9.2197031e-39
7792.5898 -2259.3398 2154.5 9.2197031e-39
7801.5601 -2190.1602 2156.8999 9.2197031e-39
7796.6602 -2118.27 2155.5901 9.2197031e-39
7788.2798 -2046.04 2153.3401 9.2197031e-39
7785.9102 -1975.29 2152.7 9.2197031e-39
7830.48 -2849.75 2164.6499 9.2197031e-39
7828.6802 -2775.3201 2164.1599 9.2197031e-39
7829 -2701.8701 2164.25 9.2197031e-39
7815.5601 -2625.0698 2160.6499 9.2197031e-39
7814.54 -2552.0698 2160.3799 9.2197031e-39
