# .PCD v0.7 - Point Cloud Data file format
VERSION 0.7
FIELDS x y z rgb
SIZE 4 4 4 4
TYPE F F F F
COUNT 1 1 1 1
WIDTH 312
HEIGHT 1
VIEWPOINT 0 0 0 1 0 0 0
POINTS 312
DATA ascii
114.344 -2356.53 39.778801 9.2197031e-39
106.468 -2330.8599 35.948002 9.2197031e-39
102.689 -2294.6802 32.442902 9.2197031e-39
488.21552 -953.97253 38.510048 9.2197031e-39
493.298 -950.58496 39.587997 9.2197031e-39
491.60651 -944.04498 38.693703 9.2197031e-39
476.55399 -933.70001 34.077 9.2197031e-39
485.02826 -934.76849 36.343948 9.2197031e-39
497.19751 -937.95947 39.714752 9.2197031e-39
483.92151 -926.26453 35.463501 9.2197031e-39
483.15201 -912.85303 34.3274 9.2197031e-39
553.29498 -667.83228 35.355099 9.2197031e-39
648.09698 -290.58899 33.524601 9.2197031e-39
642.927 -272.60199 30.9305 9.2197031e-39
651.07098 -276.92999 33.3396 9.2197031e-39
509.41299 -964.89899 44.756802 9.2197031e-39
511.181 -965.98401 45.289902 9.2197031e-39
507.30301 -953.5625 43.418949 9.2197031e-39
514.14203 -955.79669 45.344166 9.2197031e-39
503.39874 -942.617 41.644325 9.2197031e-39
515.68005 -947.49048 45.161701 9.2197031e-39
498.60001 -939.08203 40.155899 9.2197031e-39
501.133 -931.06201 40.250999 9.2197031e-39
518.32599 -938.60101 45.2253 9.2197031e-39
577.62598 -671.38538 41.897301 9.2197031e-39
575.62726 -664.73474 40.915623 9.2197031e-39
583.95032 -665.19257 43.100666 9.2197031e-39
585.41748 -657.60583 42.950199 9.2197031e-39
577.74103 -649.59369 40.4048 9.2197031e-39
601.44202 -647.58942 46.395699 9.2197031e-39
593.45099 -625.3075 42.771801 9.2197031e-39
618.24799 -617.17261 48.618099 9.2197031e-39
596.36902 -606.36591 42.203499 9.2197031e-39
616.70801 -571.00299 44.9944 9.2197031e-39
633.40601 -521.02698 45.822399 9.2197031e-39
654.35699 -481.53198 48.483101 9.2197031e-39
650.93903 -470.70398 46.8424 9.2197031e-39
664.35498 -445.35901 48.542301 9.2197031e-39
677.758 -379.17401 47.3857 9.2197031e-39
697.19299 -329.37601 48.934299 9.2197031e-39
-323.64301 -4213.6899 56.221001 9.2197031e-39
654.51099 -574.07397 54.987999 9.2197031e-39
695.67798 -353.81601 50.249699 9.2197031e-39
719.86499 -300.48901 52.780998 9.2197031e-39
912.26001 352.05005 56.9641 9.2197031e-39
920.14001 364.79004 58.1119 9.2197031e-39
916.45697 418.10999 53.434502 9.2197031e-39
915.16901 425.16003 52.608601 9.2197031e-39
1317.15 1885.8201 54.5532 9.2197031e-39
1332.34 1979.5601 51.9324 9.2197031e-39
-312.203 -4321.02 66.678101 9.2197031e-39
693.57898 -513.06598 60.832001 9.2197031e-39
730.59998 -473.02399 67.611397 9.2197031e-39
741.90698 -454.65601 69.252998 9.2197031e-39
936.315 358.07996 62.7654 9.2197031e-39
943.04602 366.84998 63.8937 9.2197031e-39
1349.37 1871.72 63.8727 9.2197031e-39
1386.63 1947.76 68.198601 9.2197031e-39
-357.436 -4633.8701 76.833099 9.2197031e-39
761.58801 -441.508 73.425697 9.2197031e-39
773.383 -423.56201 75.223 9.2197031e-39
783.52301 -424.526 77.913399 9.2197031e-39
791.50299 -412.49701 79.137497 9.2197031e-39
816.04999 -394.91602 84.259102 9.2197031e-39
832.39801 -388.746 88.0569 9.2197031e-39
840.36798 -378.13 89.3769 9.2197031e-39
875.54449 -393.82901 99.573349 9.2197031e-39
849.24402 -382.302 91.964401 9.2197031e-39
859.776 -383.46799 94.7705 9.2197031e-39
866.15955 -383.4805 96.422546 9.2197031e-39
872.58301 -383.45401 98.082497 9.2197031e-39
851.66998 -378.78799 92.346703 9.2197031e-39
887.95099 -420.39999 104.639 9.2197031e-39
894.55499 -414.26801 105.919 9.2197031e-39
890.25751 -405.33252 104.183 9.2197031e-39
883.79797 -398.608 102.042 9.2197031e-39
941.13049 -383.26099 115.80099 9.2197031e-39
1951.54 522.30005 313.91299 9.2197031e-39
1978.74 535.77002 320.01001 9.2197031e-39
2039.99 555.31006 334.48801 9.2197031e-39
2065.49 565.88 340.34399 9.2197031e-39
1052.73 -3445.73 358.61301 9.2197031e-39
1064.25 -3370.6201 356.34698 9.2197031e-39
2130.1399 573.57996 356.53201 9.2197031e-39
2129.1799 584.91003 355.491 9.2197031e-39
1049.71 -3529.1101 363.65799 9.2197031e-39
1083.76 -3371.77 361.474 9.2197031e-39
1049.17 -3678.53 373.95499 9.2197031e-39
1050.34 -3800.3401 382.76901 9.2197031e-39
1139.8 -3494.5901 384.54999 9.2197031e-39
865.54102 -4614.6201 391.85101 9.2197031e-39
892.03198 -4619.8999 399.07101 9.2197031e-39
1052 -3995.3601 396.82199 9.2197031e-39
931.49701 -4616.2803 409.02802 9.2197031e-39
1054.29 -4148.0303 408.08099 9.2197031e-39
957.42401 -4615.2002 415.659 9.2197031e-39
998.03998 -4619.6797 426.479 9.2197031e-39
2167.6799 -338.27899 429.944 9.2197031e-39
1024.27 -4620.1699 433.29901 9.2197031e-39
1062.62 -4434.1797 430.22601 9.2197031e-39
1237.21 -3815.3799 432.15799 9.2197031e-39
1263.51 -3789.53 437.15601 9.2197031e-39
2196.29 -362.54501 439.04099 9.2197031e-39
2176.71 -344.62399 432.72299 9.2197031e-39
2175.05 -313.15399 430.09601 9.2197031e-39
2185.54 -301.27399 431.979 9.2197031e-39
2195.22 -274.811 432.63501 9.2197031e-39
2199.8601 -264.383 433.10599 9.2197031e-39
2213.6799 -235.923 434.69299 9.2197031e-39
2213.4399 -226.85199 433.99799 9.2197031e-39
2238.72 -193.703 438.22198 9.2197031e-39
2240.0901 -183.85602 437.888 9.2197031e-39
2254.6001 -153.44702 439.517 9.2197031e-39
1061.85 -4601.1899 441.69299 9.2197031e-39
1293.04 -3818.1599 446.79501 9.2197031e-39
2214.6699 -366.918 444.10101 9.2197031e-39
2250.46 -390.892 455.03299 9.2197031e-39
2234.04 -385.496 450.409 9.2197031e-39
2597.3 921.07996 453.10199 9.2197031e-39
2616.23 920.03003 458.07199 9.2197031e-39
2292.5901 -414.64301 467.59 9.2197031e-39
2284.8 -406.815 465.03 9.2197031e-39
2322.9199 -432.30099 476.67099 9.2197031e-39
2393.1599 -92.599976 471.10901 9.2197031e-39
2747.21 901.10999 493.27399 9.2197031e-39
2837.55 924 515.04498 9.2197031e-39
1639.4301 -3671.3301 526.14203 9.2197031e-39
2862.5601 924.82996 521.45599 9.2197031e-39
1671.4 -3664.3601 533.92603 9.2197031e-39
1629.36 -3963.6899 543.96301 9.2197031e-39
1649.37 -3916.05 545.81 9.2197031e-39
1649.12 -3850.4299 541.16199 9.2197031e-39
1695.5601 -3667 540.35901 9.2197031e-39
1727.24 -3658.3999 547.95398 9.2197031e-39
1876.6899 -3122.8899 549.20203 9.2197031e-39
1882 -3076.4199 547.33002 9.2197031e-39
1651.58 -4097.8101 559.08099 9.2197031e-39
1705 -3900.49 559.11298 9.2197031e-39
1750.34 -3657.9199 553.89697 9.2197031e-39
1903.11 -3075.4299 552.72198 9.2197031e-39
1924.0699 -3055.5901 556.75897 9.2197031e-39
1948.13 -2973.3799 557.23798 9.2197031e-39
1536.49 -4593.23 563.91901 9.2197031e-39
1785.27 -3655.8101 562.78601 9.2197031e-39
1807.66 -3653.1201 568.39001 9.2197031e-39
1959.38 -3076.6399 567.362 9.2197031e-39
1986.01 -2979.8701 567.492 9.2197031e-39
1564.87 -4597.0098 571.52399 9.2197031e-39
1657.52 -4309.8101 575.42603 9.2197031e-39
1658.75 -4234.8501 570.50897 9.2197031e-39
1984.0699 -3061.9099 572.72198 9.2197031e-39
2018.55 -2994.99 576.96399 9.2197031e-39
1606.6 -4591.96 581.96503 9.2197031e-39
1628.95 -4574.3701 586.52002 9.2197031e-39
1649.8199 -4414.6602 580.76001 9.2197031e-39
1852.39 -3670.74 581.19098 9.2197031e-39
1871.99 -3661.3799 585.60699 9.2197031e-39
1974.49 -3329.4299 588.92999 9.2197031e-39
2054.3 -2996.3201 586.30603 9.2197031e-39
2066.8999 -2981.99 588.565 9.2197031e-39
2058.48 -2921.55 582.16498 9.2197031e-39
2070.5601 -2907.29 584.29303 9.2197031e-39
2087.1699 -2882.49 586.85602 9.2197031e-39
2092.98 -2860.3601 586.815 9.2197031e-39
2108.99 -2835.3799 589.20898 9.2197031e-39
1674.1 -4579.8701 598.58197 9.2197031e-39
1910.0601 -3662.8799 595.56 9.2197031e-39
2141.6599 -2847.76 598.526 9.2197031e-39
1933.09 -3660.24 601.33197 9.2197031e-39
2161.1499 -2826.8201 602.10498 9.2197031e-39
2171.1699 -2810.6599 603.56799 9.2197031e-39
1998.67 -3665.6299 618.67401 9.2197031e-39
1970.59 -3659.0801 610.95203 9.2197031e-39
2199.6899 -2800.5801 610.242 9.2197031e-39
2215.79 -2791.72 613.78601 9.2197031e-39
2255.8501 -2794.1699 624.32098 9.2197031e-39
2276.45 -2790.0801 629.36401 9.2197031e-39
2086.97 -3758.1399 647.97699 9.2197031e-39
3215.51 418.30005 648.14502 9.2197031e-39
3218.76 436.55005 647.711 9.2197031e-39
3220.3201 478.09998 645.211 9.2197031e-39
3214.3301 492.29004 642.66901 9.2197031e-39
3217.76 535.40002 640.54602 9.2197031e-39
3236.05 561.70996 643.44 9.2197031e-39
3225.73 365.91003 654.448 9.2197031e-39
3220.3401 380.23999 652.05298 9.2197031e-39
3363.47 669.18005 668.89398 9.2197031e-39
3342.0701 374.03003 683.97601 9.2197031e-39
3392.76 377.21997 696.86499 9.2197031e-39
2261.1399 -3950.8899 706.49799 9.2197031e-39
2291.4299 -3955.3301 714.64398 9.2197031e-39
3574.23 796.90002 714.48901 9.2197031e-39
2584.6699 -3087.22 729.854 9.2197031e-39
3219.77 -714.30499 728.37097 9.2197031e-39
3708.3899 1085.37 729.04303 9.2197031e-39
3699.29 1132.98 723.36102 9.2197031e-39
3697.25 1154.35 721.34198 9.2197031e-39
3732.72 1024.73 739.57098 9.2197031e-39
3716.78 1067.95 732.42999 9.2197031e-39
3746.45 958.62 747.742 9.2197031e-39
3739.9099 1006.65 742.69501 9.2197031e-39
3311.4099 -695.73859 750.77802 9.2197031e-39
3337.97 -660.07129 755.15698 9.2197031e-39
3338.29 -643.91699 754.11298 9.2197031e-39
3754.1299 940.89001 750.96802 9.2197031e-39
3742.45 452.52002 782.06299 9.2197031e-39
3756.6001 477.92004 783.95001 9.2197031e-39
4077.51 1446.3301 799.31097 9.2197031e-39
4089.45 1480.0801 800.03998 9.2197031e-39
3705.3401 -353.92499 828.80298 9.2197031e-39
3603.3799 -1020.525 848.995 9.2197031e-39
3596.8401 -982.35901 844.638 9.2197031e-39
3587.46 -963.617 840.90302 9.2197031e-39
3620.22 -1096.889 858.68597 9.2197031e-39
3605.77 -1076.9351 853.55402 9.2197031e-39
3604.6899 -1039.009 850.62701 9.2197031e-39
4400.1499 1773.1001 859.94397 9.2197031e-39
3914.4299 -263.22601 876.55402 9.2197031e-39
3897.2 -246.37 870.91901 9.2197031e-39
4499.6201 1939.25 874.06799 9.2197031e-39
4555.2798 2081.6799 878.51501 9.2197031e-39
3099.8799 -3459.6599 889.14801 9.2197031e-39
3089.8401 -3414.6101 883.40198 9.2197031e-39
3117.8601 -3384.3201 888.53601 9.2197031e-39
3120.0801 -3352.6599 886.89899 9.2197031e-39
3117.9399 -3293.7 882.22601 9.2197031e-39
3928.8999 -303.814 883.133 9.2197031e-39
3960.6201 -192.71701 883.57501 9.2197031e-39
3965.99 -171.80499 883.50403 9.2197031e-39
4598.27 2079.6799 889.776 9.2197031e-39
3099.48 -3555.8101 895.76202 9.2197031e-39
3101.9199 -3522.23 894.047 9.2197031e-39
3163.8899 -3304.52 894.86603 9.2197031e-39
3970.26 -360.95499 897.82202 9.2197031e-39
3115.0801 -3635.45 905.35999 9.2197031e-39
3837.3799 -937.15198 903.70203 9.2197031e-39
3901.22 -920.01099 919.02002 9.2197031e-39
4763.3599 2086.4199 932.01099 9.2197031e-39
4222.0498 -351.198 962.27502 9.2197031e-39
4864.6001 2045.6899 961.04602 9.2197031e-39
3647.23 -3695.4199 1047.21 9.2197031e-39
3782.1599 -3781.1799 1088.1 9.2197031e-39
4142.4702 -3167.5901 1138.4399 9.2197031e-39
4156.9199 -3210.4299 1145.17 9.2197031e-39
4166.6201 -3123.3401 1141.6 9.2197031e-39
4196.4102 -3109.3999 1148.33 9.2197031e-39
4254.6201 -3085.74 1161.74 9.2197031e-39
4320.8101 -3093.0801 1179.37 9.2197031e-39
4514.1699 -3514.6101 1258.84 9.2197031e-39
4396.8398 -3978.4199 1260.89 9.2197031e-39
4612.0098 -4198.7998 1331.9399 9.2197031e-39
4638.8198 -4477.9502 1358.38 9.2197031e-39
4685.2998 -4471.8799 1369.98 9.2197031e-39
4743.9302 -4182.2402 1364.91 9.2197031e-39
4787.3901 -4475.4697 1396.64 9.2197031e-39
4842.2202 -4215.9102 1392.6899 9.2197031e-39
4834.1899 -4468.0898 1408.23 9.2197031e-39
5263.98 -4460.7803 1518.9 9.2197031e-39
5325.5498 -4459.8799 1534.76 9.2197031e-39
5683.3701 -3351.76 1549.91 9.2197031e-39
5678.8301 -3309.3501 1545.77 9.2197031e-39
5687.3501 -3238.45 1543.02 9.2197031e-39
5707.3799 -3208.28 1546.1 9.2197031e-39
5685.71 -3470.1899 1558.79 9.2197031e-39
5688.96 -3430.8401 1556.88 9.2197031e-39
5438.2598 -4456.2803 1563.67 9.2197031e-39
5621.1602 -3797.47 1564.96 9.2197031e-39
5620.8901 -3754.1899 1561.86 9.2197031e-39
5642.5498 -3686.95 1562.77 9.2197031e-39
5691.5601 -3592.76 1568.87 9.2197031e-39
5688.8301 -3549.4299 1565.13 9.2197031e-39
5499.5098 -4453.0703 1579.29 9.2197031e-39
5693.8599 -3673.1201 1575.08 9.2197031e-39
5611.54 -4444.9102 1607.7 9.2197031e-39
5645.5 -4331.5898 1608.5699 9.2197031e-39
5647.0601 -4421.52 1615.25 9.2197031e-39
6782.0898 -841.46002 1658.76 9.2197031e-39
6825.5601 -728.13037 1662.09 9.2197031e-39
6868.21 -689.87421 1670.45 9.2197031e-39
6899.9302 -804.31299 1686.65 9.2197031e-39
7259.6899 -359.332 1748.63 9.2197031e-39
7259.1299 -967.00598 1790.9301 9.2197031e-39
7270.27 -926.79901 1791.01 9.2197031e-39
7728.5801 591.13 1803.52 9.2197031e-39
7537.1401 -299.83899 1816.24 9.2197031e-39
7288.0601 -1541.054 1838.52 9.2197031e-39
7258.2002 -1785.45 1847.87 9.2197031e-39
7284.7002 -1706.52 1849.21 9.2197031e-39
7279.9102 -1664.092 1845.01 9.2197031e-39
7286.8599 -1582.473 1841.1 9.2197031e-39
7716.1602 -69.908997 1846.49 9.2197031e-39
7716.3701 -26.89801 1843.54 9.2197031e-39
7286.1201 -1831.6801 1858.3199 9.2197031e-39
7718.29 -200.05301 1856.13 9.2197031e-39
7715.3799 -157.35303 1852.39 9.2197031e-39
7252.9199 -3214.73 1946.35 9.2197031e-39
7259.8101 -3264.49 1951.61 9.2197031e-39
7263.0498 -3497.5601 1968.73 9.2197031e-39
7264.3599 -3405.54 1962.64 9.2197031e-39
7268.3901 -3359.05 1960.4399 9.2197031e-39
7267.0601 -3547.96 1973.29 9.2197031e-39
7387.6699 -3171.24 1978.17 9.2197031e-39
7266.9902 -3691.3501 1983.29 9.2197031e-39
7272.8799 -3644.26 1981.52 9.2197031e-39
7272.9102 -3839.6299 1995.1801 9.2197031e-39
7270.0498 -3787.8999 1990.83 9.2197031e-39
7538.3701 -3174.8601 2017.41 9.2197031e-39
7802.8799 -3168.2 2085.3701 9.2197031e-39
7847.98 -3036.99 2087.8701 9.2197031e-39
7845.79 -3132.22 2093.95 9.2197031e-39
8348.3301 -3137.4199 2224.3201 9.2197031e-39
8705.2598 -3138.2 2316.7 9.2197031e-39
