# .PCD v0.7 - Point Cloud Data file format
VERSION 0.7
FIELDS x y z rgb
SIZE 4 4 4 4
TYPE F F F F
COUNT 1 1 1 1
WIDTH 312
HEIGHT 1
VIEWPOINT 0 0 0 1 0 0 0
POINTS 312
DATA ascii
-75.313049 -2233.53 34.539398 9.2197031e-39
-18.519501 -2176.24 39.748798 9.2197031e-39
636.00702 -1078.514 39.7425 9.2197031e-39
637.28302 -1067.948 38.586399 9.2197031e-39
643.03436 -1065.5988 39.587566 9.2197031e-39
631.08301 -1050.074 34.7066 9.2197031e-39
643.97406 -1056.0289 38.490498 9.2197031e-39
631.46399 -1048.995 34.646301 9.2197031e-39
641.73169 -1046.4701 36.662701 9.2197031e-39
643.57397 -1030.615 34.910999 9.2197031e-39
976.836 -495.17001 38.129753 9.2197031e-39
966.81036 -484.19363 34.316204 9.2197031e-39
971.79602 -487.75 35.951599 9.2197031e-39
960.23798 -473.58701 31.348101 9.2197031e-39
-9.6359196 -2210.9102 46.550701 9.2197031e-39
7.4207501 -2198.6201 48.789902 9.2197031e-39
-14.5932 -2187.6899 42.223701 9.2197031e-39
468.086 -1393.088 44.265598 9.2197031e-39
500.91901 -1334.7271 43.813099 9.2197031e-39
519.37701 -1303.385 43.759998 9.2197031e-39
655.23169 -1071.642 43.223866 9.2197031e-39
663.99384 -1075.8894 45.82333 9.2197031e-39
646.88 -1065.4609 40.453602 9.2197031e-39
655.40753 -1064.931 42.343449 9.2197031e-39
654.20203 -1052.114 40.306999 9.2197031e-39
669.71802 -1059.4771 44.888401 9.2197031e-39
808.73901 -837.46399 46.416401 9.2197031e-39
815.68347 -833.85352 47.5191 9.2197031e-39
790.49902 -821.591 40.040401 9.2197031e-39
803.62 -820.164 42.864101 9.2197031e-39
815.48798 -828.01599 46.672901 9.2197031e-39
820.67297 -825.39301 47.506401 9.2197031e-39
795.38049 -819.09753 40.821648 9.2197031e-39
806.05005 -815.20642 42.743034 9.2197031e-39
813.60999 -815.37701 44.506302 9.2197031e-39
808.026 -799.62909 41.060101 9.2197031e-39
818.62903 -789.82983 42.155602 9.2197031e-39
846.20502 -788.05408 48.258499 9.2197031e-39
836.24298 -764.47101 42.729401 9.2197031e-39
872.526 -725.39191 45.716801 9.2197031e-39
913.34698 -671.23999 47.680199 9.2197031e-39
1001.79 -532.72998 49.026199 9.2197031e-39
999.28101 -521.53998 46.914001 9.2197031e-39
1004.255 -522.40302 48.176498 9.2197031e-39
994.21948 -514.71552 44.812653 9.2197031e-39
979.49902 -505.94299 40.221001 9.2197031e-39
980.41602 -505.51501 40.373402 9.2197031e-39
991.16248 -504.43799 42.6987 9.2197031e-39
863.80103 -778.62439 51.013802 9.2197031e-39
893.32098 -752.83551 54.2687 9.2197031e-39
923.70001 -740.04791 59.505299 9.2197031e-39
918.45697 -738.55847 58.0942 9.2197031e-39
987.797 -585.91602 53.1054 9.2197031e-39
995.74298 -565.44299 52.1245 9.2197031e-39
1002.75 -556.534 52.514999 9.2197031e-39
999.31403 -548.80103 50.662701 9.2197031e-39
1007.99 -537.42798 51.097698 9.2197031e-39
950.59094 -715.6095 62.340347 9.2197031e-39
2076.3999 -175.14801 247.269 9.2197031e-39
2077.1599 -167.724 246.425 9.2197031e-39
2087.22 -131.07397 243.711 9.2197031e-39
2101.3701 -130.35101 246.867 9.2197031e-39
2078.3301 -263.582 259.849 9.2197031e-39
2081.3799 -255.41699 259.431 9.2197031e-39
2080.05 -233.38699 256.10199 9.2197031e-39
2074.96 -229.129 254.34399 9.2197031e-39
2075.8799 -205.69 251.34 9.2197031e-39
2082.0801 -195.55899 251.377 9.2197031e-39
2084.6201 -311.686 267.89801 9.2197031e-39
2086.1699 -285.61652 264.67599 9.2197031e-39
2114.27 -334.27802 277.82199 9.2197031e-39
2113.22 -328.05399 276.72601 9.2197031e-39
2096.6399 -313.06201 270.853 9.2197031e-39
2145.3601 -350.56601 287.21301 9.2197031e-39
2157.24 -339.07999 288.37 9.2197031e-39
2177.26 -360.55499 295.92401 9.2197031e-39
2183.6799 -365.05399 298.01901 9.2197031e-39
2217.25 -382.384 308.12201 9.2197031e-39
2210.8799 -377.61099 306.00201 9.2197031e-39
2489.3101 127.83698 300.71701 9.2197031e-39
2244.3201 -395.71201 316.18301 9.2197031e-39
2259.03 -397.96201 319.87701 9.2197031e-39
2288.8201 -411.26901 328.55801 9.2197031e-39
3019.3501 601.78003 357.66199 9.2197031e-39
2990.4199 473.26001 368.64099 9.2197031e-39
3037.96 557.44995 368.03 9.2197031e-39
3057.71 584.30005 368.89099 9.2197031e-39
2984.05 429.71997 373.14999 9.2197031e-39
3017.6001 503.58997 370.73599 9.2197031e-39
976.76398 -3385.7 434.77701 9.2197031e-39
1014.81 -3344.8301 437.923 9.2197031e-39
994.95801 -3420.1201 443.68799 9.2197031e-39
1028.37 -3341.8201 440.633 9.2197031e-39
2928.23 -218.33099 449.23599 9.2197031e-39
977.15399 -3678.8301 475.09299 9.2197031e-39
975.91602 -3829.1201 495.431 9.2197031e-39
1107.92 -3683.77 505.86401 9.2197031e-39
-207.86 -5922.0801 510.211 9.2197031e-39
3274.8301 -146.05103 519.08301 9.2197031e-39
1140.9301 -3796.1799 528.88898 9.2197031e-39
1180.23 -3726.1799 528.32599 9.2197031e-39
3276.5901 -158.24597 521.16302 9.2197031e-39
-209.265 -6085.7402 532.34601 9.2197031e-39
730.703 -4561.52 539.50403 9.2197031e-39
1174.46 -3788.3301 535.52899 9.2197031e-39
666.73901 -4726.98 547.48999 9.2197031e-39
687.55701 -4686.8701 546.77698 9.2197031e-39
750.53101 -4558.75 543.68799 9.2197031e-39
1226.28 -3790.5 547.75098 9.2197031e-39
3228.8101 -441.026 548.97198 9.2197031e-39
793.96002 -4583.1797 557.03497 9.2197031e-39
1245.29 -3803.76 553.94598 9.2197031e-39
3219.6599 -533.82703 559.59998 9.2197031e-39
3232.4399 -498.25598 557.66101 9.2197031e-39
3231.3999 -486.397 555.79498 9.2197031e-39
3240.6799 -450.905 553.05902 9.2197031e-39
3299.99 -392.72601 558.72498 9.2197031e-39
813.94702 -4583.0601 561.61798 9.2197031e-39
3238.8701 -542.94098 565.27197 9.2197031e-39
857.35303 -4587.8604 572.26703 9.2197031e-39
877.32397 -4586.4297 576.66602 9.2197031e-39
3189.28 -683.83942 573.19501 9.2197031e-39
920.40399 -4581.5303 585.909 9.2197031e-39
3246.55 -666.4375 583.987 9.2197031e-39
3268.8401 -630.57849 584.19598 9.2197031e-39
-221.142 -6539.75 591.91602 9.2197031e-39
940.40002 -4580.7598 590.40503 9.2197031e-39
981.73901 -4553.3999 596.164 9.2197031e-39
998.33197 -4512.9297 594.42902 9.2197031e-39
1865.62 -3063.8201 595.16901 9.2197031e-39
1874.41 -3051.5901 595.51398 9.2197031e-39
1912.16 -2971.8501 593.25897 9.2197031e-39
1914.27 -2949.52 590.67902 9.2197031e-39
1573.27 -3653.46 608.80103 9.2197031e-39
1980.47 -2976.1201 609.56403 9.2197031e-39
1960.15 -2968.78 603.88202 9.2197031e-39
2012.36 -2892.22 605.39001 9.2197031e-39
2012.6801 -2869.1599 602.29901 9.2197031e-39
2046.6899 -2844.52 606.745 9.2197031e-39
2065.51 -2820.96 607.84302 9.2197031e-39
3304.6299 -707.05865 602.92798 9.2197031e-39
3380.1899 -605.43622 606.37201 9.2197031e-39
1568.66 -3691.99 613.02802 9.2197031e-39
1605.1899 -3640.23 614.33301 9.2197031e-39
1621.21 -3637.9399 617.70599 9.2197031e-39
1881.54 -3157.75 611.72198 9.2197031e-39
1931.77 -3092.45 614.32098 9.2197031e-39
1935.74 -3071.51 612.36102 9.2197031e-39
2009.5 -2966.27 614.89502 9.2197031e-39
2015.77 -2951.1599 614.26501 9.2197031e-39
2048.4399 -2869.9399 610.63702 9.2197031e-39
2086.5701 -2827.9299 613.64697 9.2197031e-39
2106.8501 -2806.28 615.34399 9.2197031e-39
2111.72 -2791.1599 614.38898 9.2197031e-39
3290.21 -846.15698 618.698 9.2197031e-39
3284.5601 -812.74597 612.81201 9.2197031e-39
3288.99 -800.26801 612.11902 9.2197031e-39
3372.74 -714.24872 619.591 9.2197031e-39
1662.41 -3650.8999 628.966 9.2197031e-39
2142.21 -2783.05 620.29401 9.2197031e-39
2153.3999 -2776.27 621.93903 9.2197031e-39
2182.1001 -2765.21 627.02698 9.2197031e-39
3351 -763.00568 621.27802 9.2197031e-39
3784.5801 -66.950989 625.54401 9.2197031e-39
3768.23 -56.137024 620.29797 9.2197031e-39
1681.17 -3655.6699 633.93701 9.2197031e-39
2202.3701 -2769.53 632.28302 9.2197031e-39
2230.54 -2756.97 637.04401 9.2197031e-39
3783.1499 -166.98901 638.94202 9.2197031e-39
3795.1599 -121.90503 635.521 9.2197031e-39
3781.8799 -110.02899 630.83398 9.2197031e-39
1727.17 -3678.6899 647.68201 9.2197031e-39
1939.6801 -3299.79 644.59399 9.2197031e-39
2260.96 -2772.74 646.20801 9.2197031e-39
3587.29 -529.64301 643.63397 9.2197031e-39
3785.6799 -181.58301 641.52698 9.2197031e-39
1595.8101 -3964.51 656.67499 9.2197031e-39
1602.95 -3927.46 653.23499 9.2197031e-39
1743.46 -3675.73 651.026 9.2197031e-39
1780.72 -3673.1001 659.23901 9.2197031e-39
3805.4299 -218.85001 651.18597 9.2197031e-39
1797.02 -3669.8501 662.54602 9.2197031e-39
3853.71 -223.474 662.93201 9.2197031e-39
3372.77 -1142.567 678.375 9.2197031e-39
3365.27 -1128.866 674.76898 9.2197031e-39
3366.99 -1094.225 670.40997 9.2197031e-39
3382.54 -1082.179 672.33502 9.2197031e-39
3723.9199 -525.823 674.55402 9.2197031e-39
3321.47 -1280.594 685.51001 9.2197031e-39
3340.72 -1270.032 688.49103 9.2197031e-39
3366.1101 -1225.0239 688.15698 9.2197031e-39
3369 -1190.328 684.06 9.2197031e-39
3367.5601 -1177.0129 681.90302 9.2197031e-39
3911.3799 -253.85001 680.37299 9.2197031e-39
3350.8201 -1333.167 699.479 9.2197031e-39
3321.3501 -1315.3 690.24402 9.2197031e-39
3556.9299 -953.96997 694.87598 9.2197031e-39
3552.3601 -940.14099 691.927 9.2197031e-39
1435.71 -4571.1899 703.08301 9.2197031e-39
1455.73 -4567.7598 707.21899 9.2197031e-39
3441.54 -1247.37 708.58398 9.2197031e-39
3572.8301 -1005.3 705.578 9.2197031e-39
3565.6001 -991.18396 701.97803 9.2197031e-39
-366.34698 -7648.2598 710.61798 9.2197031e-39
1500.45 -4563.2803 716.896 9.2197031e-39
3574.2 -1056.599 712.93402 9.2197031e-39
3573.0701 -1042.548 710.74701 9.2197031e-39
1520.4399 -4559.5098 720.979 9.2197031e-39
1573.75 -4503.2998 725.53601 9.2197031e-39
1928.55 -3894.1499 723.59698 9.2197031e-39
1935.4301 -3864.8501 721.159 9.2197031e-39
3421.1599 -1394.319 724.05798 9.2197031e-39
3446.6299 -1384.7471 728.60699 9.2197031e-39
-285.91501 -7654.6802 730.00897 9.2197031e-39
-250.18401 -7655.6802 738.37 9.2197031e-39
1567.03 -4561.8398 732.021 9.2197031e-39
1619.9399 -4504.9102 736.38599 9.2197031e-39
1639.65 -4500.5303 740.32202 9.2197031e-39
1685.0699 -4422.8101 740.10901 9.2197031e-39
1995.33 -3905.23 740.48499 9.2197031e-39
2013.67 -3902.6001 744.34601 9.2197031e-39
-169.804 -7661.6201 757.68298 9.2197031e-39
1686.35 -4502.1699 751.29498 9.2197031e-39
-134.82201 -7667.9302 766.59998 9.2197031e-39
3891.01 -901.612 764.57703 9.2197031e-39
-54.621601 -7675.3701 786.078 9.2197031e-39
3989.55 -885.16199 784.99701 9.2197031e-39
-18.4692 -7671.2002 793.82703 9.2197031e-39
2226.6299 -3940.45 798.55103 9.2197031e-39
2204.8301 -3938.1699 793.22101 9.2197031e-39
61.3573 -7682.1201 813.69702 9.2197031e-39
97.4245 -7677.3501 821.34198 9.2197031e-39
177.91901 -7680.8701 840.35101 9.2197031e-39
213.291 -7683.4102 848.84003 9.2197031e-39
2230.05 -4281.8999 846.19397 9.2197031e-39
2269.53 -4212.75 845.78998 9.2197031e-39
2295.9399 -4221.77 853.10699 9.2197031e-39
281.64999 -7890.5498 892.99799 9.2197031e-39
2336.29 -4464.1396 895.65399 9.2197031e-39
3065.5701 -3264.3501 898.84399 9.2197031e-39
318.35501 -7887.5698 901.03497 9.2197031e-39
3053.98 -3364.6201 909.93701 9.2197031e-39
3069.5701 -3293.72 903.79498 9.2197031e-39
3052.5801 -3425.6699 917.992 9.2197031e-39
3070.8999 -3355.8201 912.62201 9.2197031e-39
4591 -829.20801 915.737 9.2197031e-39
401.561 -7886.23 920.00098 9.2197031e-39
438.065 -7885.6001 928.31598 9.2197031e-39
3053.1499 -3453.51 921.94501 9.2197031e-39
3053.21 -3546.8 934.76099 9.2197031e-39
3052.1001 -3517.23 930.44598 9.2197031e-39
521.224 -7883.75 947.20001 9.2197031e-39
3066.3799 -3629.3301 949.11603 9.2197031e-39
3214.9399 -3350.21 945.005 9.2197031e-39
557.659 -7884.48 955.68597 9.2197031e-39
3062.1799 -3654.1499 951.55603 9.2197031e-39
3560.5 -3654.8401 1066.33 9.2197031e-39
3714.72 -3730.0801 1112.15 9.2197031e-39
4079.76 -3146.1399 1116.03 9.2197031e-39
4103.8198 -3100.02 1115.24 9.2197031e-39
4124.21 -3087.72 1118.24 9.2197031e-39
4091.3201 -3179.53 1123.27 9.2197031e-39
4174.6899 -3057.8301 1125.76 9.2197031e-39
4188.3599 -3041.01 1126.6 9.2197031e-39
4332.52 -3065.4299 1163.12 9.2197031e-39
4422.9902 -3092.6101 1187.6801 9.2197031e-39
4359.75 -3945.9099 1290.22 9.2197031e-39
4469.9102 -4070.9099 1332.72 9.2197031e-39
6739.6001 -536.41199 1370.04 9.2197031e-39
4670.7598 -4118.8604 1385.53 9.2197031e-39
4509.27 -4433.3398 1391.52 9.2197031e-39
4734.3198 -4134.96 1402.36 9.2197031e-39
4606.23 -4431.9502 1413.64 9.2197031e-39
4646.23 -4430.1797 1422.6 9.2197031e-39
4742.5898 -4424.79 1444.04 9.2197031e-39
4782.8901 -4421.9399 1452.9301 9.2197031e-39
5647.27 -3236.9199 1489.24 9.2197031e-39
5676.2202 -3172.99 1487.13 9.2197031e-39
5648.0298 -3268.8501 1493.79 9.2197031e-39
5643.1699 -3376.98 1507.51 9.2197031e-39
5642.21 -3344.3601 1502.8101 9.2197031e-39
5646.9902 -3458.6101 1519.59 9.2197031e-39
5569.98 -3645.76 1527.55 9.2197031e-39
5647.23 -3491.55 1524.17 9.2197031e-39
5169.9502 -4389.9697 1537.62 9.2197031e-39
5572.3701 -3680.78 1532.91 9.2197031e-39
5647.6299 -3572.97 1535.4301 9.2197031e-39
5649.7002 -3607.5901 1540.66 9.2197031e-39
5242.4702 -4407.9102 1556.77 9.2197031e-39
5356.6401 -4401.98 1582.23 9.2197031e-39
5412.1001 -4404.77 1595.38 9.2197031e-39
5596.1602 -4274.27 1619.83 9.2197031e-39
5532.73 -4399.3501 1622.39 9.2197031e-39
5605.5 -4318.8501 1628.09 9.2197031e-39
5580.7998 -4394.9697 1632.86 9.2197031e-39
7224.9399 -3191.3799 1846.0699 9.2197031e-39
7223.3301 -3152.96 1840.4301 9.2197031e-39
7232.21 -3326.8401 1866.34 9.2197031e-39
7229.5601 -3287.4199 1860.3199 9.2197031e-39
7228.6899 -3460.23 1883.83 9.2197031e-39
7235.8501 -3423.96 1880.5 9.2197031e-39
7479.7402 -3144 1898.21 9.2197031e-39
7241.3398 -3602.0801 1906.21 9.2197031e-39
7240.3198 -3561.95 1900.47 9.2197031e-39
7240.23 -3700.24 1919.42 9.2197031e-39
7577.2798 -3136.6399 1919.65 9.2197031e-39
7236.8901 -3739.1599 1923.99 9.2197031e-39
7241.7798 -3841.45 1939.16 9.2197031e-39
7826.6401 -3116.54 1974.28 9.2197031e-39
7838.4502 -3079.8 1971.96 9.2197031e-39
8021.5098 -3033.1101 2007.6801 9.2197031e-39
8371.96 -3091.46 2096.3401 9.2197031e-39
