# .PCD v0.7 - Point Cloud Data file format
VERSION 0.7
FIELDS x y z rgb
SIZE 4 4 4 4
TYPE F F F F
COUNT 1 1 1 1
WIDTH 321
HEIGHT 1
VIEWPOINT 0 0 0 1 0 0 0
POINTS 321
DATA ascii
252 -1213 134 9.2197031e-39
262.16599 -1202.908 136.724 9.2197031e-39
257.05801 -1199.9771 135.355 9.2197031e-39
267.095 -1196.7949 138.045 9.2197031e-39
272.125 -1196.636 139.39301 9.2197031e-39
272.95401 -776.67297 139.61501 9.2197031e-39
272.677 -762.59698 139.53999 9.2197031e-39
269.422 -453.103 138.668 9.2197031e-39
271.03799 -450.29199 139.101 9.2197031e-39
273.41602 -447.10101 139.73849 9.2197031e-39
252.00101 1308 134 9.2197031e-39
268.08401 1307.9301 138.31 9.2197031e-39
282.43301 -1201.175 142.15401 9.2197031e-39
277.28 -1199.429 140.774 9.2197031e-39
286.85101 -1189.8979 143.338 9.2197031e-39
291.41699 -1183.575 144.562 9.2197031e-39
295.27399 -1169.24 145.595 9.2197031e-39
299.06 -1156.873 146.61 9.2197031e-39
299.216 -1107.652 146.651 9.2197031e-39
290.267 -976.92401 144.25301 9.2197031e-39
290.271 -947.75 144.255 9.2197031e-39
282.82501 -801.48804 142.25999 9.2197031e-39
283.56601 -795.28503 142.45799 9.2197031e-39
277.927 -785.06201 140.94699 9.2197031e-39
283.70099 -786.12903 142.494 9.2197031e-39
282.80499 -772.07001 142.254 9.2197031e-39
282.595 -762.95001 142.198 9.2197031e-39
293.5 -760.34399 145.12 9.2197031e-39
305.31201 -765.00751 148.2845 9.2197031e-39
284.01849 -752.68573 142.5795 9.2197031e-39
294.79068 -754.40869 145.466 9.2197031e-39
302.867 -757.40771 147.63 9.2197031e-39
286.54199 -746.18848 143.25549 9.2197031e-39
292.51398 -748.69604 144.8555 9.2197031e-39
304.43301 -745.18402 148.049 9.2197031e-39
298.25101 -731.55701 146.39301 9.2197031e-39
307.81033 -473.21533 148.95433 9.2197031e-39
289.54099 -464.46201 144.05901 9.2197031e-39
308.04602 -464.93701 149.01749 9.2197031e-39
286.9346 -454.84921 143.36061 9.2197031e-39
294.36099 -456.55402 145.351 9.2197031e-39
309.53299 -452.578 149.416 9.2197031e-39
311.14301 -452.17902 149.847 9.2197031e-39
276.3725 -445.04199 140.5305 9.2197031e-39
285.659 -442.81598 143.019 9.2197031e-39
295.36801 -448.53036 145.62033 9.2197031e-39
305.021 -443.36142 148.207 9.2197031e-39
283.06201 -434.508 142.32301 9.2197031e-39
305.77499 -438.31598 148.409 9.2197031e-39
284.09799 1303.71 142.601 9.2197031e-39
300.34601 1311.34 146.95399 9.2197031e-39
317.703 -457.392 151.605 9.2197031e-39
311.828 -442.759 150.03101 9.2197031e-39
312.578 -436.62299 150.23199 9.2197031e-39
316.42099 1309.84 151.26199 9.2197031e-39
332.939 1319.17 155.687 9.2197031e-39
349.46701 1325.36 160.116 9.2197031e-39
365.57401 1322.41 164.43201 9.2197031e-39
381.97601 1324.3 168.827 9.2197031e-39
398.34299 1325.05 173.213 9.2197031e-39
415.32199 1332.62 177.76199 9.2197031e-39
431.42099 1329.08 182.076 9.2197031e-39
448.48199 1335.34 186.647 9.2197031e-39
465.772 1342.4301 191.28 9.2197031e-39
1312.9301 1059.4301 418.27499 9.2197031e-39
1332.8199 1058.9 423.604 9.2197031e-39
1373.5699 1089.46 434.52301 9.2197031e-39
1429.51 619.05005 449.51401 9.2197031e-39
1430.99 1049.51 449.90799 9.2197031e-39
1419.88 1064.15 446.931 9.2197031e-39
1410.14 1753.1499 444.32101 9.2197031e-39
1467.77 573.71997 459.76501 9.2197031e-39
1459.9301 586.71997 457.66501 9.2197031e-39
1449.1899 596.90002 454.78601 9.2197031e-39
1439.0601 607.67004 452.07101 9.2197031e-39
1466.38 1162.5601 459.39301 9.2197031e-39
1432.85 1699.2 450.40701 9.2197031e-39
1460.9399 1705.1399 457.935 9.2197031e-39
1456.6899 1795.8201 456.79501 9.2197031e-39
1431.63 1849.4299 450.08099 9.2197031e-39
1499.17 502.76001 468.17899 9.2197031e-39
1486.92 511.35999 464.89401 9.2197031e-39
1492.6899 536.39001 466.44199 9.2197031e-39
1492.4 556.26001 466.36401 9.2197031e-39
1481.89 566.73999 463.54901 9.2197031e-39
1494.84 1721.24 467.01901 9.2197031e-39
1531.74 492.15002 476.90399 9.2197031e-39
1521 502.38 474.02802 9.2197031e-39
1507.97 1064.28 470.53601 9.2197031e-39
1516.24 1105.71 472.75201 9.2197031e-39
1540 1619.21 479.11801 9.2197031e-39
1523.6899 1635.0701 474.74899 9.2197031e-39
1510.08 1702.0901 471.10199 9.2197031e-39
1536.6801 1703.6299 478.229 9.2197031e-39
1547.65 486.20996 481.168 9.2197031e-39
1574.9 489.40002 488.46899 9.2197031e-39
1564.98 1048.96 485.81299 9.2197031e-39
1573.8 1633.0601 488.17401 9.2197031e-39
1611.4 1047.8 498.25 9.2197031e-39
1614.35 1613.8999 499.04099 9.2197031e-39
1653.61 -3937.1799 509.55899 9.2197031e-39
1654.97 -3862.27 509.92401 9.2197031e-39
1652.77 -3782.1299 509.33499 9.2197031e-39
1648.92 -3701.3799 508.30399 9.2197031e-39
1645.1 -3557.03 507.28 9.2197031e-39
1645.52 1059.61 507.39099 9.2197031e-39
1622.77 1671.0701 501.29599 9.2197031e-39
1681.63 -4455.6899 517.06799 9.2197031e-39
1657.08 -4292.8301 510.48999 9.2197031e-39
1667.53 -4227.1396 513.289 9.2197031e-39
1661.8199 -4123.6797 511.76099 9.2197031e-39
1659.77 -4033.48 511.20999 9.2197031e-39
1667.39 -3538.96 513.25098 9.2197031e-39
1656.83 879.98999 510.423 9.2197031e-39
1673.65 1501.9399 514.92902 9.2197031e-39
1712.4399 -3769.8799 525.323 9.2197031e-39
1699.12 -3540.3201 521.755 9.2197031e-39
1692.67 1056.47 520.02698 9.2197031e-39
1731.88 -3543.1001 530.53198 9.2197031e-39
1762.0699 -3540.21 538.62201 9.2197031e-39
1741.46 1053.59 533.099 9.2197031e-39
1786.8 -3526.46 545.24799 9.2197031e-39
1828.27 -3543.97 556.35901 9.2197031e-39
1856.83 -3536.5801 564.01202 9.2197031e-39
1891.1801 -3539.29 573.216 9.2197031e-39
1925.7 -3541.6001 582.46503 9.2197031e-39
1954.41 -3533.23 590.15802 9.2197031e-39
1988.15 -3533.0801 599.20001 9.2197031e-39
1977.5699 -3199.29 596.36603 9.2197031e-39
1956.62 -3074.1001 590.75299 9.2197031e-39
1971.74 -3050.51 594.802 9.2197031e-39
2019.46 -3528.3101 607.59003 9.2197031e-39
2025.1899 -3373.5 609.125 9.2197031e-39
2027.98 -3325.8701 609.87201 9.2197031e-39
1991.66 -3172.1399 600.14099 9.2197031e-39
1994.05 -3037.29 600.78101 9.2197031e-39
2005.23 -3008.6799 603.776 9.2197031e-39
2056.02 -3531.6299 617.38397 9.2197031e-39
2029.58 -2998.3101 610.30103 9.2197031e-39
2051.51 -2984.52 616.17798 9.2197031e-39
2089.6001 -3529.48 626.38397 9.2197031e-39
2073.3501 -2970.52 622.02802 9.2197031e-39
2078.6699 -2935.3201 623.45502 9.2197031e-39
2102.5901 -2924.1299 629.86298 9.2197031e-39
2123.97 -2909.6201 635.59302 9.2197031e-39
2154.03 -2905.55 643.64697 9.2197031e-39
2166.3401 -444.02301 646.94598 9.2197031e-39
2148.6001 -428.216 642.19098 9.2197031e-39
2149 -410.896 642.29901 9.2197031e-39
2145.4099 -393.974 641.33801 9.2197031e-39
2151.28 -375.97101 642.90997 9.2197031e-39
2159.8601 -357.47998 645.211 9.2197031e-39
2191.3301 -2869.3401 653.64099 9.2197031e-39
2190.71 -459.64999 653.47498 9.2197031e-39
2215.8501 -2938.8401 660.21198 9.2197031e-39
2216.8501 -2859.1599 660.479 9.2197031e-39
2237.1201 -2842.8 665.91101 9.2197031e-39
2239.0601 -474.17902 666.43103 9.2197031e-39
2273.73 -2844.52 675.72198 9.2197031e-39
2295.03 -489.15201 681.427 9.2197031e-39
2335.1299 -2872.6001 692.17297 9.2197031e-39
2353.54 -524.0238 697.10602 9.2197031e-39
2328.6899 -506.1311 690.448 9.2197031e-39
2400.51 -2903.3301 709.69 9.2197031e-39
2393.1299 -561.30798 707.71399 9.2197031e-39
2372.45 -542.51538 702.172 9.2197031e-39
2416.45 -2880.26 713.96301 9.2197031e-39
2427.27 -600 716.85999 9.2197031e-39
2410.76 -580.49622 712.43799 9.2197031e-39
2446.52 -2871.9299 722.02002 9.2197031e-39
2447.47 -619.83539 722.27301 9.2197031e-39
2538.7 1216.54 746.71899 9.2197031e-39
2528.6299 1241.4399 744.021 9.2197031e-39
2661.3701 1245.73 779.59003 9.2197031e-39
2630.3 1255.4 771.26202 9.2197031e-39
2688.5601 1232.71 786.875 9.2197031e-39
2730.8601 334.05701 798.20697 9.2197031e-39
2768.72 -3160.4199 808.354 9.2197031e-39
2753.46 1247.22 804.26398 9.2197031e-39
2793.46 1242.33 814.98297 9.2197031e-39
2867.01 1260.64 834.68903 9.2197031e-39
2929.8401 381.72601 851.526 9.2197031e-39
2927.4399 1268.26 850.88098 9.2197031e-39
2993.02 1278.24 868.45398 9.2197031e-39
3066.21 -1087.55 888.06598 9.2197031e-39
3071.1699 -1062.264 889.39398 9.2197031e-39
3068.7 1293.71 888.73102 9.2197031e-39
3104.97 -3452.27 898.45001 9.2197031e-39
3102.28 -3400.23 897.729 9.2197031e-39
3090.45 -3340.27 894.56 9.2197031e-39
3092.0801 -3294.25 894.99597 9.2197031e-39
3109.6499 -3263.8101 899.70599 9.2197031e-39
3106.6799 -3214.7 898.90802 9.2197031e-39
3120.5901 -3181.5901 902.63599 9.2197031e-39
3252.6699 -654.22461 938.02802 9.2197031e-39
3327.3301 -3319.24 958.03302 9.2197031e-39
3311.97 -682.95471 953.91602 9.2197031e-39
3335.96 -37.03302 960.34302 9.2197031e-39
3372.02 -59.468994 970.00702 9.2197031e-39
3521.99 27.437012 1010.19 9.2197031e-39
3591.1699 -963.341 1028.73 9.2197031e-39
3590.25 -932.776 1028.48 9.2197031e-39
3587.1599 -902.08203 1027.65 9.2197031e-39
3576.1001 -870.841 1024.6899 9.2197031e-39
3568.6201 -840.10199 1022.68 9.2197031e-39
3668.5701 1280.7 1049.47 9.2197031e-39
3702.3501 -3597.3201 1058.52 9.2197031e-39
3707.0601 1106.11 1059.78 9.2197031e-39
3701.23 1141.65 1058.22 9.2197031e-39
3693.3401 1176.3101 1056.1 9.2197031e-39
3685.1201 1210.97 1053.9 9.2197031e-39
3675.72 1245.15 1051.38 9.2197031e-39
3724.26 -1009.569 1064.39 9.2197031e-39
3708.3899 -818.85901 1060.14 9.2197031e-39
3741.21 970.67004 1068.9301 9.2197031e-39
3733.1399 1004.58 1066.77 9.2197031e-39
3722.1201 1037.21 1063.8101 9.2197031e-39
3714.3101 1071.45 1061.72 9.2197031e-39
3772.8 -791.026 1077.39 9.2197031e-39
3768.48 -758.94897 1076.24 9.2197031e-39
3748.99 936.75 1071.01 9.2197031e-39
3809.5 777.01001 1087.23 9.2197031e-39
3818.96 1405.02 1089.76 9.2197031e-39
3894.3201 270.56 1109.96 9.2197031e-39
3889.6699 304.13397 1108.71 9.2197031e-39
3879.0901 336.237 1105.88 9.2197031e-39
3873.8701 369.72101 1104.48 9.2197031e-39
3886.0801 408.09998 1107.75 9.2197031e-39
3865.02 687.94995 1102.1 9.2197031e-39
3874.4099 839.56006 1104.62 9.2197031e-39
3931.3401 -98.519012 1119.88 9.2197031e-39
3924.3 139.00299 1117.99 9.2197031e-39
3925.5 173.74701 1118.3101 9.2197031e-39
3903.72 203.578 1112.48 9.2197031e-39
3896.8101 236.539 1110.62 9.2197031e-39
3901.6499 447.83997 1111.92 9.2197031e-39
3903.8201 484.07996 1112.5 9.2197031e-39
3898.6399 663.18994 1111.11 9.2197031e-39
3919.6499 895.68994 1116.74 9.2197031e-39
3943.23 -62.93103 1123.0601 9.2197031e-39
3946.8101 642.87 1124.02 9.2197031e-39
3982.02 617.56006 1133.46 9.2197031e-39
3986.6899 1001.53 1134.71 9.2197031e-39
4069.73 1590.8501 1156.96 9.2197031e-39
4051.96 1625.75 1152.2 9.2197031e-39
4266.4902 670.65002 1209.6801 9.2197031e-39
4241.8599 1068.87 1203.08 9.2197031e-39
4262.8701 1944.5701 1208.71 9.2197031e-39
4277.04 634.32996 1212.51 9.2197031e-39
4396.2598 -3892.1799 1244.45 9.2197031e-39
4450.0801 -3875.0801 1258.87 9.2197031e-39
4518.6802 -3868.55 1277.25 9.2197031e-39
4496.3501 2199.3301 1271.27 9.2197031e-39
4550.9199 -1265.1421 1285.89 9.2197031e-39
4564.02 -1227.3921 1289.4 9.2197031e-39
4574.2002 -3851.04 1292.13 9.2197031e-39
4575.8398 -1189.3259 1292.5699 9.2197031e-39
4566.27 -1148.412 1290 9.2197031e-39
4574.6602 2196.3799 1292.25 9.2197031e-39
4636.04 -3837.4199 1308.7 9.2197031e-39
4669.5801 -4370.0303 1317.6899 9.2197031e-39
4694.8101 -3820.6299 1324.45 9.2197031e-39
4751.4902 -4372.1499 1339.63 9.2197031e-39
4788.3901 2221.8899 1349.52 9.2197031e-39
4823.1802 -4364.3398 1358.84 9.2197031e-39
4828.5801 2135.5 1360.29 9.2197031e-39
4901.9302 -4361.0703 1379.9399 9.2197031e-39
4873.6001 2218.3601 1372.35 9.2197031e-39
5527.3901 -4353.5703 1547.54 9.2197031e-39
5609.8901 -3802.5 1569.64 9.2197031e-39
5605.5698 -3735.75 1568.48 9.2197031e-39
5599.8999 -3606.1001 1566.96 9.2197031e-39
5619.6899 -4348.27 1572.27 9.2197031e-39
5639.7998 -4291.9102 1577.66 9.2197031e-39
5631.02 -4216.3999 1575.3 9.2197031e-39
5631.9702 -4148.3301 1575.5601 9.2197031e-39
5632.1899 -4080.51 1575.62 9.2197031e-39
5625.9102 -4009.3 1573.9301 9.2197031e-39
5627.1201 -3943.6299 1574.26 9.2197031e-39
5625.9702 -3877.1699 1573.95 9.2197031e-39
5613.21 -3676.6001 1570.53 9.2197031e-39
5685.25 -3282.9399 1589.83 9.2197031e-39
5684.02 -3222.3501 1589.5 9.2197031e-39
5680.4302 -3161.1399 1588.54 9.2197031e-39
5689.8501 -3593.3501 1591.0699 9.2197031e-39
5690.0298 -3530.72 1591.11 9.2197031e-39
5690.4199 -3468.77 1591.22 9.2197031e-39
5689.3301 -3406.5801 1590.9301 9.2197031e-39
5687.6001 -3344.6399 1590.46 9.2197031e-39
5695.6299 -3109.1599 1592.62 9.2197031e-39
7252.4502 -3095.48 2009.76 9.2197031e-39
7236.2202 -852.49799 2005.41 9.2197031e-39
7260.5498 -3754.8999 2011.9301 9.2197031e-39
7263.75 -3681.3 2012.79 9.2197031e-39
7258.23 -3604.45 2011.3101 9.2197031e-39
7260 -3531.3 2011.79 9.2197031e-39
7260.1802 -3457.98 2011.83 9.2197031e-39
7257.8501 -3384.1599 2011.21 9.2197031e-39
7258.4302 -3312.01 2011.37 9.2197031e-39
7257.4199 -3239.71 2011.1 9.2197031e-39
7255.73 -3167.6399 2010.64 9.2197031e-39
7428.9399 -3086.0801 2057.05 9.2197031e-39
7616.8198 -3077.3899 2107.3999 9.2197031e-39
7687.2202 550.40002 2126.26 9.2197031e-39
7692.5098 620.03003 2127.6799 9.2197031e-39
7766.46 -2978.4399 2147.49 9.2197031e-39
7800.48 -3063.98 2156.6101 9.2197031e-39
7797.3301 -2913.8701 2155.77 9.2197031e-39
7810.98 -2478.77 2159.4199 9.2197031e-39
7804.8799 -2405.23 2157.79 9.2197031e-39
7795.29 -2331.3 2155.22 9.2197031e-39
7798.2598 -2260.5898 2156.01 9.2197031e-39
7803.4502 -2190.5601 2157.4099 9.2197031e-39
7793.8198 -2117.6899 2154.8201 9.2197031e-39
7793.98 -2047.13 2154.8701 9.2197031e-39
7777.3501 -1973.73 2150.4099 9.2197031e-39
7827.6899 -2848.9199 2163.8999 9.2197031e-39
7835.1899 -2777.1899 2165.9099 9.2197031e-39
7823.3999 -2700.3201 2162.75 9.2197031e-39
7819.3101 -2626.0698 2161.6499 9.2197031e-39
7818.29 -2553.03 2161.3799 9.2197031e-39
