# .PCD v0.7 - Point Cloud Data file format
VERSION 0.7
FIELDS x y z rgb
SIZE 4 4 4 4
TYPE F F F F
COUNT 1 1 1 1
WIDTH 294
HEIGHT 1
VIEWPOINT 0 0 0 1 0 0 0
POINTS 294
DATA ascii
120.741 -7641 32.352402 9.2197031e-39
139.33051 -825.026 37.3335 9.2197031e-39
135.67325 -813.66571 36.353477 9.2197031e-39
136.45999 -808.77252 36.56435 9.2197031e-39
128.05267 -796.03302 34.311535 9.2197031e-39
135.75966 -795.00909 36.376667 9.2197031e-39
146.46501 -796.03192 39.245235 9.2197031e-39
128.98 -788.59033 34.5602 9.2197031e-39
138.386 -782.39276 37.080421 9.2197031e-39
142.94334 -785.6264 38.301498 9.2197031e-39
124.986 -771.86572 33.490002 9.2197031e-39
146.84 -774.23572 39.3456 9.2197031e-39
139.847 -623.5163 37.471802 9.2197031e-39
142.427 -621.65656 38.163151 9.2197031e-39
143.34183 -615.88995 38.408268 9.2197031e-39
141.306 -605.87891 37.862801 9.2197031e-39
145.041 -581.64398 38.863602 9.2197031e-39
145.58299 -573.58997 39.008801 9.2197031e-39
148.01801 -554.71899 39.661301 9.2197031e-39
124.2725 -280.53198 33.298698 9.2197031e-39
138.774 -272.40701 37.184299 9.2197031e-39
124.382 -268.01599 33.328098 9.2197031e-39
131.664 -268.14801 35.279202 9.2197031e-39
135.60699 -259.26901 36.3358 9.2197031e-39
147.159 -252.836 39.431 9.2197031e-39
144.04601 -239.63199 38.596901 9.2197031e-39
179.366 -7654.7402 48.060902 9.2197031e-39
153.43919 -804.02209 41.113918 9.2197031e-39
153.629 -796.14941 41.1647 9.2197031e-39
154.41 -623.57703 41.373947 9.2197031e-39
157.702 -617.99146 42.256149 9.2197031e-39
153.54221 -604.71906 41.141476 9.2197031e-39
162.72301 -600.04053 43.601601 9.2197031e-39
157.5235 -596.80298 42.208401 9.2197031e-39
162.58234 -592.75433 43.563801 9.2197031e-39
162.62601 -587.03699 43.575401 9.2197031e-39
151.19299 -529.89697 40.5121 9.2197031e-39
180.843 -328.17001 48.456799 9.2197031e-39
179.67101 -314.802 48.142799 9.2197031e-39
179.278 -294.50299 48.0373 9.2197031e-39
178.14301 -277.15601 47.7332 9.2197031e-39
168.744 -263.82199 45.214699 9.2197031e-39
173.94699 -266.9935 46.608948 9.2197031e-39
154.465 -256.37201 41.388901 9.2197031e-39
163.98151 -255.2515 43.938751 9.2197031e-39
155.062 -248.41299 41.548698 9.2197031e-39
191.52299 -284.41101 51.318501 9.2197031e-39
238.47501 -7682.9399 63.8992 9.2197031e-39
303.47501 -7924.52 81.315903 9.2197031e-39
364.36499 -7922.6001 97.631302 9.2197031e-39
425.237 -7920.1201 113.942 9.2197031e-39
486.08499 -7917.1001 130.246 9.2197031e-39
1172.28 883.96997 314.11099 9.2197031e-39
1264.6899 1481.22 338.87399 9.2197031e-39
1262.14 1522.3799 338.18799 9.2197031e-39
1243.36 1532.6101 333.15701 9.2197031e-39
1256.95 1608.6001 336.798 9.2197031e-39
1237.88 1619.6699 331.68799 9.2197031e-39
1231.83 1658.4399 330.06799 9.2197031e-39
1286.85 902.06006 344.80899 9.2197031e-39
1273.3 912.54004 341.17899 9.2197031e-39
1295.3101 1406.1699 347.07599 9.2197031e-39
1285.12 1430.6299 344.34601 9.2197031e-39
1281.16 1467.3101 343.28699 9.2197031e-39
1315.01 911.30005 352.35501 9.2197031e-39
1333.61 1431.6699 357.33801 9.2197031e-39
1399.78 1503.78 375.07101 9.2197031e-39
1450.67 1230.27 388.70599 9.2197031e-39
1421.9 1455.74 380.996 9.2197031e-39
1449.36 1459.0801 388.354 9.2197031e-39
1429.41 1510.8999 383.01001 9.2197031e-39
1489.6 1250.54 399.138 9.2197031e-39
1474.89 1418.0701 395.19601 9.2197031e-39
1489.6 1482.22 399.138 9.2197031e-39
1527 -4129.7998 409.15799 9.2197031e-39
1521.96 -4036.26 407.80801 9.2197031e-39
1521.35 -3956.79 407.64401 9.2197031e-39
1497.88 -3828.45 401.35501 9.2197031e-39
1511.95 -3788.7 405.125 9.2197031e-39
1510.9 -3717.3401 404.84399 9.2197031e-39
1519.41 626.85999 407.12601 9.2197031e-39
1495.1 747.90002 400.612 9.2197031e-39
1528.4301 757.34998 409.54099 9.2197031e-39
1516.8101 905.18994 406.42899 9.2197031e-39
1501.95 916.25 402.44601 9.2197031e-39
1543.45 -4537.02 413.565 9.2197031e-39
1533.61 -4413.2998 410.92899 9.2197031e-39
1533.37 -4319.73 410.866 9.2197031e-39
1531.3 -4225.52 410.311 9.2197031e-39
1531.8199 -3630.02 410.448 9.2197031e-39
1560.41 -3625.1699 418.10901 9.2197031e-39
1530.78 661.27002 410.172 9.2197031e-39
1553.54 890.68994 416.271 9.2197031e-39
1576.9301 -3790.95 422.53699 9.2197031e-39
1593.04 -3628.02 426.853 9.2197031e-39
1592.21 647.77002 426.63101 9.2197031e-39
1591.42 744.85999 426.42001 9.2197031e-39
1625.8199 -3630.5 435.638 9.2197031e-39
1640.02 528.85999 439.44101 9.2197031e-39
1626.58 540.05005 435.84 9.2197031e-39
1621.74 909.16003 434.54401 9.2197031e-39
1662.45 -3639.6399 445.452 9.2197031e-39
1672.1899 -3597.6201 448.061 9.2197031e-39
1677.47 514.45996 449.47699 9.2197031e-39
1661.8101 524.21997 445.28101 9.2197031e-39
1709.71 -3049.3301 458.11401 9.2197031e-39
1699.3 509.27002 455.32501 9.2197031e-39
1692.63 617.80005 453.54001 9.2197031e-39
1697.8 770.07996 454.923 9.2197031e-39
1694.98 901.57996 454.17001 9.2197031e-39
1720.8101 -3627.8799 461.08899 9.2197031e-39
1741.23 -3051.98 466.56 9.2197031e-39
1720.11 -2979 460.90201 9.2197031e-39
1742.71 -2969.29 466.957 9.2197031e-39
1753.97 528.46997 469.97501 9.2197031e-39
1740.39 919.25 466.33499 9.2197031e-39
1755.09 -3630.6299 470.27399 9.2197031e-39
1784.63 -3624.3701 478.19 9.2197031e-39
1761.51 -3171.55 471.996 9.2197031e-39
1761.1899 -2953.75 471.91 9.2197031e-39
1787.1801 -2948.3601 478.875 9.2197031e-39
1776.0601 522.38 475.89401 9.2197031e-39
1819.17 -3626.3701 487.444 9.2197031e-39
1808.45 -2936.3701 484.573 9.2197031e-39
1818.22 -2909.3 487.19 9.2197031e-39
1808.46 523.43994 484.57401 9.2197031e-39
1853.36 -3627.1101 496.60599 9.2197031e-39
1847.72 -2907.8701 495.095 9.2197031e-39
1848.16 529.09998 495.21201 9.2197031e-39
1887.6899 -3627.46 505.80499 9.2197031e-39
1901.28 -2936.1699 509.448 9.2197031e-39
1896.09 539.72998 508.05499 9.2197031e-39
1902.63 875.56006 509.80701 9.2197031e-39
1927.35 -3635.8501 516.43201 9.2197031e-39
1966.76 -3642.8999 526.99103 9.2197031e-39
1950.49 -2957.53 522.63202 9.2197031e-39
1943.73 -2909.74 520.82001 9.2197031e-39
1957.22 -2887.1499 524.43402 9.2197031e-39
1976.86 -2871.97 529.698 9.2197031e-39
1971.1899 -2827.6201 528.177 9.2197031e-39
1970.12 -2789.4399 527.89301 9.2197031e-39
1941.74 881.90002 520.28699 9.2197031e-39
2001.62 -3641.95 536.33301 9.2197031e-39
1984.37 -2769 531.711 9.2197031e-39
1999.08 -2749.1799 535.65198 9.2197031e-39
1986.21 578.29004 532.20398 9.2197031e-39
2036.0699 -3639.77 545.56403 9.2197031e-39
2016.28 -2732.1299 540.26099 9.2197031e-39
2043.5 -2725.6299 547.55298 9.2197031e-39
2051.78 -347.49399 549.77301 9.2197031e-39
2032.59 -333.16 544.63098 9.2197031e-39
2030.37 -315.711 544.03699 9.2197031e-39
2039.37 -295.88101 546.44598 9.2197031e-39
2043.45 -276.89999 547.539 9.2197031e-39
2049.6599 946.17004 549.20502 9.2197031e-39
2071.4299 -2719.5 555.03601 9.2197031e-39
2065.1599 -363.138 553.35699 9.2197031e-39
2056.78 -255.64899 551.112 9.2197031e-39
2068.02 -234.57599 554.12402 9.2197031e-39
2073.4099 -214.66699 555.57001 9.2197031e-39
2088.9299 -191.96399 559.72699 9.2197031e-39
2120.0701 -2734.04 568.07001 9.2197031e-39
2090.8201 -376.96301 560.23297 9.2197031e-39
2098.6001 -170.44598 562.31799 9.2197031e-39
2117.3899 -146.12701 567.35199 9.2197031e-39
2154.5 -2733.27 577.29797 9.2197031e-39
2150.49 -404.67499 576.22101 9.2197031e-39
2129.77 -389.15701 570.66998 9.2197031e-39
2154.8899 667.58997 577.40002 9.2197031e-39
2176.8401 -419.76001 583.28302 9.2197031e-39
2253.1899 -87.757019 603.74103 9.2197031e-39
2969.6201 -3498.8501 795.70599 9.2197031e-39
2966.25 -3447.0901 794.80499 9.2197031e-39
2968.6499 -3401.6899 795.44702 9.2197031e-39
2976.96 -3362.47 797.67297 9.2197031e-39
2979.76 -3318.6699 798.42401 9.2197031e-39
3000.27 -3291.4299 803.91803 9.2197031e-39
3076.3501 -3313.3799 824.30603 9.2197031e-39
3116.9299 -727.0697 835.17798 9.2197031e-39
3100.6201 -700 830.80902 9.2197031e-39
3184.54 -672.3194 853.29498 9.2197031e-39
3177.4299 -644.76312 851.39001 9.2197031e-39
3424.3601 -1059.473 917.55499 9.2197031e-39
3412.8401 -1028.176 914.46899 9.2197031e-39
3415.49 -998.42102 915.17603 9.2197031e-39
3407.28 -967.78101 912.97803 9.2197031e-39
3433.6799 -1090.777 920.052 9.2197031e-39
3477.8301 -943.03198 931.88098 9.2197031e-39
3530.3899 -3661.97 945.966 9.2197031e-39
3553.02 -917.33301 952.02899 9.2197031e-39
3576.1799 -387.02399 958.23499 9.2197031e-39
3561.8701 -356.96799 954.401 9.2197031e-39
3578.4199 1007.41 958.83398 9.2197031e-39
3569.1101 1041.21 956.33899 9.2197031e-39
3562.9399 1076.76 954.68701 9.2197031e-39
3554.72 1111.42 952.48401 9.2197031e-39
3547.03 1146.53 950.42401 9.2197031e-39
3616.1599 873.45996 968.94501 9.2197031e-39
3602.76 904.97998 965.35602 9.2197031e-39
3597.8899 940.53003 964.05103 9.2197031e-39
3590.05 974.83997 961.95203 9.2197031e-39
3627.8701 803.94995 972.08398 9.2197031e-39
3623.0601 839.08997 970.79602 9.2197031e-39
3640.5 1237.51 975.46899 9.2197031e-39
3669.51 -892.54401 983.242 9.2197031e-39
3666.1699 563.85999 982.34802 9.2197031e-39
3659.9399 597.51001 980.677 9.2197031e-39
3686.0801 643.45996 987.68201 9.2197031e-39
3710.5901 543.52002 994.24799 9.2197031e-39
3698.1499 684.71997 990.91498 9.2197031e-39
3709.3701 801.05005 993.92297 9.2197031e-39
3746.6499 519.68994 1003.91 9.2197031e-39
3740.4399 738.48999 1002.25 9.2197031e-39
3804.77 -299.133 1019.49 9.2197031e-39
3789.74 -267.224 1015.46 9.2197031e-39
3792.6599 -233.23999 1016.24 9.2197031e-39
3787.2 496.81006 1014.78 9.2197031e-39
3835.9399 475.92004 1027.84 9.2197031e-39
3910.5901 1474.8601 1047.84 9.2197031e-39
3927.0801 1439.5801 1052.26 9.2197031e-39
3968.3 -3189.03 1063.3 9.2197031e-39
4004.78 -3164.1001 1073.08 9.2197031e-39
4033.6799 -3134.0701 1080.8199 9.2197031e-39
4063.2 -3104.21 1088.73 9.2197031e-39
4090.8501 -3073 1096.14 9.2197031e-39
4137.6001 -3052.8 1108.67 9.2197031e-39
4123.1001 1789.6899 1104.78 9.2197031e-39
4151.0498 1660.6799 1112.27 9.2197031e-39
4203.75 -3043.0801 1126.39 9.2197031e-39
4269.4502 -3936.5601 1144 9.2197031e-39
4299.9102 2056.3501 1152.16 9.2197031e-39
4340.0601 -3932.27 1162.91 9.2197031e-39
4368.46 -4074.3601 1170.52 9.2197031e-39
4370.5 2049.22 1171.0699 9.2197031e-39
4404.6499 -3922.24 1180.22 9.2197031e-39
4440.46 2040.5 1189.8199 9.2197031e-39
4453.3799 -3135.4199 1193.28 9.2197031e-39
4479.6201 -3918.8401 1200.3101 9.2197031e-39
4541.3101 -4472.5801 1216.84 9.2197031e-39
4539.8198 -3903.4199 1216.4399 9.2197031e-39
4617.98 -4470.2598 1237.38 9.2197031e-39
4664.9302 2071.1599 1249.96 9.2197031e-39
4693.4302 -4465.5898 1257.6 9.2197031e-39
4727.4399 2053.5 1266.71 9.2197031e-39
4766.1001 -4457.3799 1277.0699 9.2197031e-39
5363.4902 -4430.3501 1437.14 9.2197031e-39
5482.02 -4443.7998 1468.9 9.2197031e-39
5465.0498 -4362.1001 1464.35 9.2197031e-39
5473.0298 -4298.4297 1466.49 9.2197031e-39
5480.3501 -4234.8896 1468.45 9.2197031e-39
5539.8301 -3683.02 1484.39 9.2197031e-39
5539.0601 -3620.1001 1484.1899 9.2197031e-39
5542.8101 -3560.1399 1485.1899 9.2197031e-39
5536.46 -3495.4299 1483.49 9.2197031e-39
5545.9302 -3439.3799 1486.03 9.2197031e-39
5541.7798 -3376.9199 1484.92 9.2197031e-39
5554.5098 -3323.1899 1488.33 9.2197031e-39
5553.5601 -3263.22 1488.0699 9.2197031e-39
5557.3101 -3205.8999 1489.08 9.2197031e-39
5716.1401 1581.8401 1531.63 9.2197031e-39
6686.1001 -818.64099 1791.54 9.2197031e-39
6836.4502 -882.06104 1831.8199 9.2197031e-39
6859.8501 1300.58 1838.09 9.2197031e-39
6862.1802 1367.3501 1838.71 9.2197031e-39
7089.4199 -3836.96 1899.6 9.2197031e-39
7090.7002 -3762.9399 1899.95 9.2197031e-39
7083.96 -3612.5701 1898.14 9.2197031e-39
7083.98 -3539.6499 1898.15 9.2197031e-39
7073.3799 -3463.02 1895.3101 9.2197031e-39
7081.0298 -3394.1499 1897.35 9.2197031e-39
7078.96 -3321.9299 1896.8 9.2197031e-39
7075.3101 -3249.6201 1895.8199 9.2197031e-39
7086.4902 -3183.1101 1898.8199 9.2197031e-39
7086.8398 -1585.5029 1898.91 9.2197031e-39
7090.02 -1015.019 1899.76 9.2197031e-39
7075.0298 -951.41602 1895.75 9.2197031e-39
7068.2002 -511.65698 1893.92 9.2197031e-39
7093.0601 -3689.9099 1900.58 9.2197031e-39
7098.54 -1844.16 1902.05 9.2197031e-39
7102.1899 -1780.1899 1903.03 9.2197031e-39
7103.3799 -1715.96 1903.34 9.2197031e-39
7104.9702 -1651.928 1903.77 9.2197031e-39
7094.3398 -447.88599 1900.92 9.2197031e-39
7099.6699 -384.54501 1902.35 9.2197031e-39
7301.3501 -3187.3501 1956.39 9.2197031e-39
7492.9102 -3179.8601 2007.72 9.2197031e-39
7514.4199 -298.845 2013.48 9.2197031e-39
7510.75 -232.06299 2012.5 9.2197031e-39
7518.0898 -164.47998 2014.47 9.2197031e-39
7513.29 -97.669983 2013.1801 9.2197031e-39
7685.7998 -3169.3999 2059.3999 9.2197031e-39
7665.6802 -3088.0901 2054.01 9.2197031e-39
8037.46 -3127.76 2153.6299 9.2197031e-39
8403.0303 -3158.6899 2251.5801 9.2197031e-39
