# .PCD v0.7 - Point Cloud Data file format
VERSION 0.7
FIELDS x y z rgb
SIZE 4 4 4 4
TYPE F F F F
COUNT 1 1 1 1
WIDTH 318
HEIGHT 1
VIEWPOINT 0 0 0 1 0 0 0
POINTS 318
DATA ascii
254.533 -1202.4885 134.6785 9.2197031e-39
264.76501 -1205.35 137.4205 9.2197031e-39
272.159 -1197.636 139.40199 9.2197031e-39
272.24701 -770.71802 139.425 9.2197031e-39
273.05499 -765.57098 139.642 9.2197031e-39
269.39899 -463.181 138.662 9.2197031e-39
270.01401 -467.30402 138.827 9.2197031e-39
269.54001 -452.11099 138.7 9.2197031e-39
273.302 -456.68851 139.7075 9.2197031e-39
252.00101 1301 134 9.2197031e-39
268.08401 1307.9301 138.31 9.2197031e-39
277.32199 -1200.428 140.785 9.2197031e-39
284.46948 -1192.041 142.70001 9.2197031e-39
291.68701 -1187.5649 144.634 9.2197031e-39
295.42499 -1171.234 145.636 9.2197031e-39
299.81799 -1165.839 146.813 9.2197031e-39
299.03101 -1105.661 146.60201 9.2197031e-39
289.358 -967.97302 144.00999 9.2197031e-39
290.16199 -946.75696 144.22501 9.2197031e-39
284.841 -803.17499 142.8 9.2197031e-39
279.841 -792.85803 141.46001 9.2197031e-39
281.91901 -795.56201 142.017 9.2197031e-39
277.004 -784.19 140.7 9.2197031e-39
283.10999 -778.1095 142.336 9.2197031e-39
309.927 -779.23303 149.522 9.2197031e-39
303.29099 -761.83466 147.74367 9.2197031e-39
284.37003 -754.38702 142.67349 9.2197031e-39
295.65875 -755.03827 145.698 9.2197031e-39
308.15399 -755.48804 149.04601 9.2197031e-39
288.25299 -747.80798 143.714 9.2197031e-39
290.5 -748.75299 144.31599 9.2197031e-39
302.58002 -745.88501 147.55301 9.2197031e-39
306.47501 -481.76099 148.597 9.2197031e-39
306.293 -479.461 148.548 9.2197031e-39
289.80701 -463.50101 144.13 9.2197031e-39
305.97101 -468.36798 148.461 9.2197031e-39
311.104 -464.14551 149.83701 9.2197031e-39
288.06427 -452.922 143.6635 9.2197031e-39
292.5885 -453.40952 144.87601 9.2197031e-39
308.92499 -457.72302 149.25301 9.2197031e-39
310.92999 -459.69 149.78999 9.2197031e-39
277.66699 -441.20801 140.87801 9.2197031e-39
286.76599 -444.10101 143.315 9.2197031e-39
296.33801 -449.85999 145.88 9.2197031e-39
304.23535 -442.91049 147.99651 9.2197031e-39
311.12 -444.62 149.841 9.2197031e-39
283.297 -434.76581 142.386 9.2197031e-39
306.40399 -436.42499 148.578 9.2197031e-39
287.14499 -428.82401 143.41701 9.2197031e-39
284.11499 1304.71 142.605 9.2197031e-39
300.371 1312.34 146.961 9.2197031e-39
314.12299 -436.71649 150.64551 9.2197031e-39
316.48901 1311.83 151.28 9.2197031e-39
332.939 1319.17 155.687 9.2197031e-39
349.01199 1316.37 159.994 9.2197031e-39
365.633 1323.41 164.448 9.2197031e-39
382.04401 1325.3 168.845 9.2197031e-39
398.41901 1326.04 173.233 9.2197031e-39
415.23801 1331.62 177.739 9.2197031e-39
431.42099 1329.08 182.076 9.2197031e-39
448.58301 1336.33 186.674 9.2197031e-39
1316.66 1065.27 419.27499 9.2197031e-39
1334.4399 1061.39 424.039 9.2197031e-39
1370.83 1085.34 433.79001 9.2197031e-39
1429.51 619.05005 449.51401 9.2197031e-39
1429.26 1047.1 449.44699 9.2197031e-39
1420.4399 1064.96 447.08401 9.2197031e-39
1411.89 1756.71 444.79099 9.2197031e-39
1420.6801 1880.6699 447.146 9.2197031e-39
1468.48 574.40002 459.95401 9.2197031e-39
1460.64 587.41003 457.853 9.2197031e-39
1449.89 597.58997 454.97198 9.2197031e-39
1440.4301 609.06995 452.44 9.2197031e-39
1468.63 1165.8199 459.99399 9.2197031e-39
1434.66 1702.73 450.89301 9.2197031e-39
1463.71 1710.4099 458.67599 9.2197031e-39
1447.3199 1777.1899 454.285 9.2197031e-39
1431.63 1849.4299 450.08099 9.2197031e-39
1499.91 503.41003 468.37601 9.2197031e-39
1489.1 513.32996 465.48001 9.2197031e-39
1485.46 529.77002 464.504 9.2197031e-39
1490.24 554.25 465.78699 9.2197031e-39
1481.89 566.73999 463.54901 9.2197031e-39
1495.78 1722.99 467.26999 9.2197031e-39
1531.74 492.15002 476.90399 9.2197031e-39
1520.26 501.73999 473.82901 9.2197031e-39
1539.17 1136.65 478.897 9.2197031e-39
1528.6 1643.6799 476.06299 9.2197031e-39
1508.65 1699.48 470.71899 9.2197031e-39
1542.48 1714.02 479.78201 9.2197031e-39
1548.4 486.83997 481.36899 9.2197031e-39
1567.34 483.18005 486.444 9.2197031e-39
1544.97 1627.78 480.45099 9.2197031e-39
1578.34 1640.74 489.39099 9.2197031e-39
1615.79 1053.12 499.427 9.2197031e-39
1610.2 1607.1499 497.92899 9.2197031e-39
1617.14 1661.74 499.78799 9.2197031e-39
1654.38 -3939.02 509.76501 9.2197031e-39
1653.17 -3783.04 509.44199 9.2197031e-39
1648.92 -3701.3799 508.30399 9.2197031e-39
1645.95 -3558.8301 507.50699 9.2197031e-39
1647.42 1061.87 507.901 9.2197031e-39
1682.67 -4458.4902 517.34601 9.2197031e-39
1657.4301 -4293.7598 510.58499 9.2197031e-39
1665.72 -4222.5098 512.80499 9.2197031e-39
1663.3 -4127.3701 512.15698 9.2197031e-39
1660.52 -4035.3201 511.41199 9.2197031e-39
1655.36 -3863.1799 510.02899 9.2197031e-39
1671.26 -3547.02 514.29102 9.2197031e-39
1660.89 884.27002 511.51099 9.2197031e-39
1659.24 1480.6499 511.069 9.2197031e-39
1716.6 -3778.8999 526.43701 9.2197031e-39
1699.12 -3540.3201 521.755 9.2197031e-39
1707.23 1044.13 523.92798 9.2197031e-39
1695.9 1060.1899 520.89203 9.2197031e-39
1732.77 -3544.8799 530.771 9.2197031e-39
1767.0601 -3549.9299 539.95898 9.2197031e-39
1732.89 1044.08 530.80402 9.2197031e-39
1787.26 -3527.3401 545.37097 9.2197031e-39
1829.2 -3545.72 556.60999 9.2197031e-39
1853.02 -3529.6201 562.992 9.2197031e-39
1887.8 -3533.23 572.31 9.2197031e-39
1921.28 -3533.8501 581.28302 9.2197031e-39
1954.9 -3534.0801 590.29199 9.2197031e-39
1988.66 -3533.9299 599.33502 9.2197031e-39
1972.3 -3051.3201 594.95398 9.2197031e-39
1989.45 -3030.8601 599.54901 9.2197031e-39
2025.09 -3537.6399 609.099 9.2197031e-39
1996.72 -3228.1399 601.49701 9.2197031e-39
1993.88 -3175.4099 600.73499 9.2197031e-39
2007.67 -3148.1799 604.42999 9.2197031e-39
2006.39 -3010.28 604.08698 9.2197031e-39
2022.52 -2988.79 608.40997 9.2197031e-39
2056.53 -3532.47 617.52301 9.2197031e-39
2057.71 -3424.3701 617.83899 9.2197031e-39
2031.76 -3331.6799 610.88501 9.2197031e-39
2049.73 -2982.1599 615.70001 9.2197031e-39
2090.6499 -3531.1499 626.66602 9.2197031e-39
2072.75 -2969.74 621.867 9.2197031e-39
2098.73 -2960.97 628.83002 9.2197031e-39
2095.21 -2914.8701 627.88702 9.2197031e-39
2123.97 -2909.6201 635.59302 9.2197031e-39
2145.8799 -2895.6699 641.46198 9.2197031e-39
2167.3 -443.94501 647.20398 9.2197031e-39
2150.52 -428.04199 642.70697 9.2197031e-39
2158.6101 -409.93799 644.875 9.2197031e-39
2146.3701 -393.87 641.59497 9.2197031e-39
2152.24 -375.858 643.16699 9.2197031e-39
2153.1499 -358.33301 643.41199 9.2197031e-39
2181.6299 -2898.0901 651.04303 9.2197031e-39
2199.3799 -459.022 655.79901 9.2197031e-39
2241.8899 -2928.5 667.18903 9.2197031e-39
2220.72 -2863.6201 661.51801 9.2197031e-39
2241.03 -2847.22 666.96002 9.2197031e-39
2249.6699 -473.50702 669.27301 9.2197031e-39
2271.76 -2842.3301 675.19202 9.2197031e-39
2287.3101 -489.57098 679.35999 9.2197031e-39
2315.1799 -2850.8401 686.828 9.2197031e-39
2354.5 -523.98889 697.36401 9.2197031e-39
2330.6201 -506.04388 690.96503 9.2197031e-39
2364.9399 -2865.2 700.16101 9.2197031e-39
2397.96 -561.22083 709.008 9.2197031e-39
2384.03 -542.20129 705.276 9.2197031e-39
2431.3501 -2895.95 717.95398 9.2197031e-39
2429.2 -600 717.37799 9.2197031e-39
2413.6599 -580.46997 713.21503 9.2197031e-39
2456.77 -2882.54 724.76501 9.2197031e-39
2447.47 -619.83539 722.27301 9.2197031e-39
2539.47 1217.15 746.92499 9.2197031e-39
2536.24 1247.6 746.06 9.2197031e-39
2552.3899 -2940.3401 750.38898 9.2197031e-39
2631.0701 1256 771.46899 9.2197031e-39
2686.22 1230.95 786.24701 9.2197031e-39
2663.7 1247.52 780.21399 9.2197031e-39
2721.78 330.63599 795.77502 9.2197031e-39
2744.02 1240.25 801.73499 9.2197031e-39
2804.54 1250.36 817.95099 9.2197031e-39
2867.8 1261.21 834.90198 9.2197031e-39
2931.6699 382.39301 852.01398 9.2197031e-39
2935.4399 1273.85 853.026 9.2197031e-39
3001.8799 1284.3101 870.828 9.2197031e-39
3068.1201 -1087.881 888.57599 9.2197031e-39
3067.0801 1292.62 888.297 9.2197031e-39
3107.75 -3455.05 899.19501 9.2197031e-39
3096.6699 -3394.72 896.22699 9.2197031e-39
3093.28 -3343 895.31702 9.2197031e-39
3092.79 -3294.9299 895.18701 9.2197031e-39
3110.3701 -3264.48 899.89801 9.2197031e-39
3108.8501 -3216.6899 899.48999 9.2197031e-39
3074.99 -1062.889 890.41602 9.2197031e-39
3122.05 -3182.8999 903.02698 9.2197031e-39
3296.52 -682.53589 949.77698 9.2197031e-39
3272.96 -654.59113 943.46198 9.2197031e-39
3355.25 -3343.9199 965.51202 9.2197031e-39
3367.26 -60.294983 968.73102 9.2197031e-39
3350.23 -34.427979 964.16699 9.2197031e-39
3508.7 24.88501 1006.63 9.2197031e-39
3592.1299 -963.44501 1028.98 9.2197031e-39
3593.1399 -933.06396 1029.26 9.2197031e-39
3588.1201 -902.16901 1027.91 9.2197031e-39
3579.95 -871.15503 1025.72 9.2197031e-39
3566.6899 -839.96204 1022.17 9.2197031e-39
3668.8701 1241.45 1049.55 9.2197031e-39
3660.8899 1276.48 1047.41 9.2197031e-39
3698.6499 -3594.1001 1057.53 9.2197031e-39
3706.98 -1007.531 1059.76 9.2197031e-39
3701.23 1141.65 1058.22 9.2197031e-39
3687.29 1173.1899 1054.48 9.2197031e-39
3685.98 1211.42 1054.13 9.2197031e-39
3716.1001 -819.34698 1062.2 9.2197031e-39
3742.1001 971.06995 1069.17 9.2197031e-39
3735.78 1005.8 1067.48 9.2197031e-39
3723.8701 1038.04 1064.29 9.2197031e-39
3715.1899 1071.88 1061.96 9.2197031e-39
3709.6799 1107.41 1060.48 9.2197031e-39
3767.52 -758.90503 1075.98 9.2197031e-39
3748.99 936.75 1071.01 9.2197031e-39
3788.23 -791.86401 1081.53 9.2197031e-39
3817.6399 780.17004 1089.41 9.2197031e-39
3823.21 1407.41 1090.9 9.2197031e-39
3887.74 268.98602 1108.1899 9.2197031e-39
3888.73 303.90002 1108.46 9.2197031e-39
3886.5901 338.17297 1107.89 9.2197031e-39
3878.55 370.97302 1105.73 9.2197031e-39
3892.6201 409.90997 1109.5 9.2197031e-39
3865.02 687.94995 1102.1 9.2197031e-39
3884.3301 843.51001 1107.28 9.2197031e-39
3931.3401 -98.519012 1119.88 9.2197031e-39
3926.1899 139.38501 1118.5 9.2197031e-39
3903.72 203.578 1112.48 9.2197031e-39
3897.75 236.755 1110.88 9.2197031e-39
3905.3701 448.91003 1112.92 9.2197031e-39
3902.8899 483.81006 1112.25 9.2197031e-39
3900.47 663.81995 1111.6 9.2197031e-39
3920.55 896.06006 1116.99 9.2197031e-39
3941.3201 -63.210022 1122.55 9.2197031e-39
3938.75 176.53802 1121.86 9.2197031e-39
3938.54 640.07996 1121.8101 9.2197031e-39
3985.7 618.76001 1134.4399 9.2197031e-39
3977.77 997.69995 1132.3199 9.2197031e-39
4070.5801 1591.3401 1157.1801 9.2197031e-39
4052.8 1626.25 1152.42 9.2197031e-39
4243.6499 1069.62 1203.5601 9.2197031e-39
4264.52 1945.6101 1209.15 9.2197031e-39
4277.9702 634.60999 1212.75 9.2197031e-39
4274.7998 673.28003 1211.91 9.2197031e-39
4392.4302 -3889.1399 1243.42 9.2197031e-39
4450.8501 -3875.6799 1259.08 9.2197031e-39
4491.46 2196.1101 1269.96 9.2197031e-39
4517.1299 -3867.3601 1276.84 9.2197031e-39
4563.3398 -1267.064 1289.22 9.2197031e-39
4565.9302 -1227.6699 1289.91 9.2197031e-39
4574.2002 -3851.04 1292.13 9.2197031e-39
4569.1401 -1188.412 1290.77 9.2197031e-39
4567.23 -1148.5339 1290.26 9.2197031e-39
4576.2998 2197.4399 1292.6899 9.2197031e-39
4631.3198 -3833.9299 1307.4399 9.2197031e-39
4671.0801 -4371.3101 1318.09 9.2197031e-39
4693.23 -3819.48 1324.02 9.2197031e-39
4752.2402 -4372.77 1339.84 9.2197031e-39
4781.77 2217.77 1347.75 9.2197031e-39
4831.4902 -4371.1899 1361.0699 9.2197031e-39
4830.25 2136.5 1360.74 9.2197031e-39
4896.6001 -4356.77 1378.52 9.2197031e-39
4875.2598 2219.3701 1372.8 9.2197031e-39
5522.6099 -4350.1699 1546.26 9.2197031e-39
5610.7202 -3803 1569.87 9.2197031e-39
5606.4102 -3736.24 1568.71 9.2197031e-39
5606.46 -3672.72 1568.72 9.2197031e-39
5600.7402 -3606.5801 1567.1899 9.2197031e-39
5621.29 -4349.3896 1572.7 9.2197031e-39
5640.6099 -4292.46 1577.87 9.2197031e-39
5632.6401 -4217.4902 1575.74 9.2197031e-39
5634.4199 -4149.9399 1576.21 9.2197031e-39
5626.4502 -4076.8 1574.08 9.2197031e-39
5627.5498 -4010.3501 1574.37 9.2197031e-39
5621.3198 -3940.02 1572.7 9.2197031e-39
5618.48 -3872.6101 1571.9399 9.2197031e-39
5683.54 -3465.1299 1589.38 9.2197031e-39
5682.4102 -3403.01 1589.0699 9.2197031e-39
5680.6602 -3341.1299 1588.6 9.2197031e-39
5679.1499 -3279.9299 1588.2 9.2197031e-39
5677.02 -3218.96 1587.63 9.2197031e-39
5682.1899 -3161.97 1589.01 9.2197031e-39
5691.5498 -3594.29 1591.52 9.2197031e-39
5691.7402 -3531.6399 1591.5699 9.2197031e-39
5694.75 -3108.75 1592.38 9.2197031e-39
7252.1001 -3309.55 2009.67 9.2197031e-39
7250.1602 -3236.97 2009.15 9.2197031e-39
7247.7998 -852.91699 2008.52 9.2197031e-39
7261.4302 -3755.3 2012.17 9.2197031e-39
7263.75 -3681.3 2012.79 9.2197031e-39
7259.1201 -3604.8301 2011.55 9.2197031e-39
7261.79 -3532.04 2012.27 9.2197031e-39
7261.9702 -3458.71 2012.3199 9.2197031e-39
7259.6499 -3384.8799 2011.6899 9.2197031e-39
7257.5498 -3168.3101 2011.13 9.2197031e-39
7262.5 -3099.0601 2012.46 9.2197031e-39
7430.77 -3086.72 2057.55 9.2197031e-39
7631.52 -3082.3301 2111.3301 9.2197031e-39
7689.1401 550.69995 2126.77 9.2197031e-39
7694.4199 620.33997 2128.1899 9.2197031e-39
7770.1499 -2979.6101 2148.48 9.2197031e-39
7806.9199 -3066.0901 2158.3401 9.2197031e-39
7801.04 -2915.01 2156.76 9.2197031e-39
7810.79 -2551.1001 2159.3701 9.2197031e-39
7809.5898 -2406.3599 2159.05 9.2197031e-39
7794.3501 -2331.0801 2154.97 9.2197031e-39
7797.3198 -2260.3799 2155.76 9.2197031e-39
7795.8799 -2188.96 2155.3799 9.2197031e-39
7800.4502 -2119.03 2156.6001 9.2197031e-39
7789.23 -2046.22 2153.5901 9.2197031e-39
7790.6699 -1976.16 2153.98 9.2197031e-39
7825.8398 -2848.3701 2163.3999 9.2197031e-39
7827.75 -2775.05 2163.9099 9.2197031e-39
7830.8599 -2702.3899 2164.75 9.2197031e-39
7818.3701 -2625.8198 2161.3999 9.2197031e-39
7814.7402 -2479.7 2160.4299 9.2197031e-39
