# .PCD v0.7 - Point Cloud Data file format
VERSION 0.7
FIELDS x y z rgb
SIZE 4 4 4 4
TYPE F F F F
COUNT 1 1 1 1
WIDTH 330
HEIGHT 1
VIEWPOINT 0 0 0 1 0 0 0
POINTS 330
DATA ascii
-817.35797 -2462.4302 37.104401 9.2197031e-39
-810.80402 -2435.0698 31.780399 9.2197031e-39
823.89203 -1459.926 38.766602 9.2197031e-39
844.08496 -1448.0405 38.88945 9.2197031e-39
858.47205 -1443.4745 39.86755 9.2197031e-39
842.388 -1430.825 34.722401 9.2197031e-39
863.60797 -1435.282 38.719101 9.2197031e-39
843.92847 -1428.1985 34.339298 9.2197031e-39
857.625 -1422.9 35.0532 9.2197031e-39
1083.63 -1291.256 36.744099 9.2197031e-39
1095.155 -1285.858 37.129799 9.2197031e-39
1106.78 -1280.761 37.598999 9.2197031e-39
1103.78 -1276.35 36.171902 9.2197031e-39
1707.26 -882.935 31.122801 9.2197031e-39
2339.23 -525.07202 38.188599 9.2197031e-39
2349.5701 -509.138 36.004501 9.2197031e-39
-814.15302 -2502.6699 46.735901 9.2197031e-39
-816.52399 -2480.4399 41.331299 9.2197031e-39
613.591 -1609.037 43.2673 9.2197031e-39
638.65399 -1590.134 42.472599 9.2197031e-39
655.21997 -1586.052 43.866901 9.2197031e-39
679.745 -1566.354 42.815201 9.2197031e-39
699.07397 -1559.2419 43.905998 9.2197031e-39
715.29199 -1545.0759 42.950401 9.2197031e-39
738.08002 -1534.235 43.676102 9.2197031e-39
822.08099 -1498.89 47.404499 9.2197031e-39
848.19 -1472.916 45.142899 9.2197031e-39
826.83398 -1464.2639 40.169701 9.2197031e-39
864.45752 -1461.514 44.824852 9.2197031e-39
842.31201 -1454.588 40.1348 9.2197031e-39
862.18866 -1451.4736 42.214935 9.2197031e-39
874.62402 -1454.7429 44.706902 9.2197031e-39
859.15503 -1446.2854 40.6049 9.2197031e-39
863.39899 -1445.5385 41.0303 9.2197031e-39
1106.145 -1324.2115 47.4263 9.2197031e-39
1113.27 -1327.016 49.066002 9.2197031e-39
1095.14 -1302.099 40.834301 9.2197031e-39
1104.9126 -1304.5032 42.755249 9.2197031e-39
1111.26 -1302.6696 43.227501 9.2197031e-39
1122.14 -1306.62 45.656502 9.2197031e-39
1102.59 -1297.3669 40.800449 9.2197031e-39
1202.89 -1258.661 46.050301 9.2197031e-39
1232.53 -1250.1111 48.2617 9.2197031e-39
-810.05603 -2543.0801 56.5345 9.2197031e-39
-814.50897 -2521.8599 51.066898 9.2197031e-39
790.20898 -1541.124 52.567699 9.2197031e-39
809.49103 -1521.1641 50.719898 9.2197031e-39
1215.4301 -1282.1489 53.170898 9.2197031e-39
1247.1 -1281.2261 57.407101 9.2197031e-39
1268.86 -1275.021 59.047199 9.2197031e-39
1295.3199 -1220.3679 50.289398 9.2197031e-39
1355.38 -1199.1021 53.869701 9.2197031e-39
1391.2 -1177.1331 53.884602 9.2197031e-39
1431.04 -1161.809 55.982498 9.2197031e-39
1457 -1142.217 55.155201 9.2197031e-39
1484.3199 -1130.6851 56.3596 9.2197031e-39
3399.23 48.922974 56.030399 9.2197031e-39
3404.49 72.164001 51.464901 9.2197031e-39
674.729 -1685.1689 69.226303 9.2197031e-39
1343.58 -1266.179 67.520798 9.2197031e-39
3396.78 -6.3610229 68.303101 9.2197031e-39
3406.1101 18.593018 63.9179 9.2197031e-39
1387 -1256.823 71.481499 9.2197031e-39
1422.95 -1257.7681 76.745697 9.2197031e-39
3410.1001 -32.765991 76.198799 9.2197031e-39
1505.5699 -1251.55 86.926598 9.2197031e-39
1470.46 -1249.0811 81.433098 9.2197031e-39
3400.5701 -90.309021 87.992699 9.2197031e-39
3394.8899 -60.26001 80.3386 9.2197031e-39
1563.86 -1251.9561 95.203499 9.2197031e-39
1580.12 -1250.675 97.194702 9.2197031e-39
1540.46 -1246.442 90.6604 9.2197031e-39
3406.79 -138.76898 99.925797 9.2197031e-39
3401.6599 -108.78003 92.361504 9.2197031e-39
3413.74 -154.14203 104.41 9.2197031e-39
2475.04 -1189.1589 208.813 9.2197031e-39
2468.9199 -1172.001 204.037 9.2197031e-39
2478.3201 -1223.2151 217.045 9.2197031e-39
2477.75 -1214.967 215.082 9.2197031e-39
2473.8501 -1197.535 210.556 9.2197031e-39
2490.6899 -1266.3369 228.623 9.2197031e-39
2479.3701 -1249.213 223.12601 9.2197031e-39
2482.96 -1240.645 221.674 9.2197031e-39
2498.9099 -1300.787 237.63901 9.2197031e-39
2494 -1292.426 235.04201 9.2197031e-39
2490.8601 -1274.7629 230.57001 9.2197031e-39
2508.48 -1327.077 244.98199 9.2197031e-39
2505.76 -1318.4819 242.63901 9.2197031e-39
2530.9099 -1344.9551 252.211 9.2197031e-39
-658.95203 -3417.4299 277.289 9.2197031e-39
-667.98602 -3468.23 287.61401 9.2197031e-39
-663.52301 -3497.8999 295.013 9.2197031e-39
2785.8601 -1355.811 290.48599 9.2197031e-39
-670.10999 -3547.5601 305.42099 9.2197031e-39
-639.37598 -3542.8701 308.66599 9.2197031e-39
-611.98297 -3546.6599 313.37601 9.2197031e-39
-579.81 -3538.79 316.09799 9.2197031e-39
-549.80902 -3537.8899 320.10501 9.2197031e-39
-779.40198 -3915.24 373.983 9.2197031e-39
3319.49 -1400.5491 375.62399 9.2197031e-39
3315.5601 -1385.444 371.625 9.2197031e-39
-782.50897 -3969.3701 385.90201 9.2197031e-39
3317.8 -1441.1169 384.64499 9.2197031e-39
3313.21 -1425.8621 380.51901 9.2197031e-39
-783.83698 -4019.1299 397.07001 9.2197031e-39
3328.22 -1482.454 395.54099 9.2197031e-39
3340.76 -1467.839 393.96701 9.2197031e-39
-780.62097 -4066.1599 408.254 9.2197031e-39
3407.8999 -1513.626 413.84399 9.2197031e-39
-785.63501 -4124.6602 420.90201 9.2197031e-39
-756.47198 -4185.0703 438.78299 9.2197031e-39
-780.51398 -4171.1499 432.23001 9.2197031e-39
-719.40399 -4179.5801 442.73499 9.2197031e-39
-680.271 -4167.21 445.40701 9.2197031e-39
-643.703 -4160.9399 449.10901 9.2197031e-39
-585.79602 -4171 459.53699 9.2197031e-39
-615.31201 -4165.8101 454.20801 9.2197031e-39
-552.71301 -4166.54 463.164 9.2197031e-39
-634.15997 -4381.5601 500.798 9.2197031e-39
-604.73798 -4387.9199 506.38199 9.2197031e-39
-563.06799 -4371.5898 508.505 9.2197031e-39
1045.5 -3376.52 507.27701 9.2197031e-39
-537.30499 -4384.3501 515.03601 9.2197031e-39
1082.46 -3389.28 515.37903 9.2197031e-39
1063.63 -3378.5801 510.29199 9.2197031e-39
1011.09 -3455.6399 520.50098 9.2197031e-39
-538.84601 -4455.4697 531.04797 9.2197031e-39
1030.71 -3485.27 530.01703 9.2197031e-39
2131.6499 -2844.4199 538.35101 9.2197031e-39
2145.9399 -2838.25 538.948 9.2197031e-39
1108.53 -3505.54 545.57001 9.2197031e-39
1960.2 -2995.1499 548.677 9.2197031e-39
2104.7 -2898.23 546.84601 9.2197031e-39
2115.77 -2880.5601 544.36798 9.2197031e-39
2121.5701 -2862.96 541.16602 9.2197031e-39
2169.6799 -2836.8401 541.96002 9.2197031e-39
2180.8601 -2826.6299 541.20001 9.2197031e-39
2199.1499 -2818.03 541.80499 9.2197031e-39
2213.8701 -2812.0701 542.513 9.2197031e-39
2235.3301 -2806.71 544.30103 9.2197031e-39
2258.29 -2809.8899 548.25201 9.2197031e-39
2011.4301 -3011.27 559.547 9.2197031e-39
1979.5699 -2990.1299 550.24902 9.2197031e-39
2075.22 -2943.9199 553.133 9.2197031e-39
2100.6799 -2918.99 551.01898 9.2197031e-39
2296.1001 -2821.9099 556.30402 9.2197031e-39
2295.8799 -2798.77 550.99298 9.2197031e-39
-588.22498 -4629.0601 563.73102 9.2197031e-39
2034.24 -3010.54 562.58301 9.2197031e-39
2058.29 -3018.01 567.66498 9.2197031e-39
2073.9099 -3005.4299 566.98798 9.2197031e-39
2076.99 -2981.28 561.909 9.2197031e-39
2104.78 -2958.6699 560.65002 9.2197031e-39
2361.1499 -2838.98 569.33398 9.2197031e-39
-524.828 -4640.8301 575.31897 9.2197031e-39
-558.16901 -4638.98 570.216 9.2197031e-39
-489.15201 -4637.5703 579.58398 9.2197031e-39
1951.53 -3123.05 576.64801 9.2197031e-39
1927.17 -3113.3601 571.01501 9.2197031e-39
1987.51 -3072.24 570.104 9.2197031e-39
-456.34 -4639.6201 584.659 9.2197031e-39
-420.95999 -4635.7002 588.73297 9.2197031e-39
1975.1801 -3124.1201 580.21301 9.2197031e-39
1989.25 -3114.8999 580.08398 9.2197031e-39
-387.90302 -4636.1499 593.47601 9.2197031e-39
-352.84 -4631.5898 597.35901 9.2197031e-39
1947.41 -3193.5901 592.16699 9.2197031e-39
-320.30899 -4632.2598 602.08002 9.2197031e-39
-288.73199 -4635.3701 607.22302 9.2197031e-39
-256.62 -4636.3203 611.948 9.2197031e-39
-212.08501 -4602.7002 610.53003 9.2197031e-39
-177.44901 -4594.52 613.52698 9.2197031e-39
-159.864 -4635.6104 625.37201 9.2197031e-39
1174.9 -3830.05 628.948 9.2197031e-39
1156.1899 -3883.5 638.51801 9.2197031e-39
1242.24 -3835.9399 639.74597 9.2197031e-39
1196.6899 -3829.0801 631.78601 9.2197031e-39
1263.73 -3822.4299 639.68103 9.2197031e-39
1223.51 -3867.24 644.258 9.2197031e-39
1286.52 -3829.45 644.48499 9.2197031e-39
2048.1499 -3424.51 659.01099 9.2197031e-39
-200.465 -4854.1602 669.54797 9.2197031e-39
1743.24 -3790.73 699.77502 9.2197031e-39
1756.16 -3751.6799 692.67798 9.2197031e-39
3443.03 -2745.47 699.90002 9.2197031e-39
3444.8899 -2722.54 694.927 9.2197031e-39
3556.5701 -2666.4199 697.802 9.2197031e-39
1730.88 -3824.51 705.74799 9.2197031e-39
1789.4 -3783 704.492 9.2197031e-39
1722.29 -3882.05 717.67499 9.2197031e-39
3564.8799 -2729.3398 713.32703 9.2197031e-39
3584.77 -2705.0801 710.58398 9.2197031e-39
-255.605 -5128.9702 724.521 9.2197031e-39
1708.39 -3914.9299 723.22601 9.2197031e-39
1842.58 -3860.6001 729.66803 9.2197031e-39
3599.8601 -2772.98 728.19897 9.2197031e-39
-219.89999 -5132.1499 730.26001 9.2197031e-39
748.83801 -4577.29 739.65302 9.2197031e-39
3740.9099 -2724.25 736.883 9.2197031e-39
-193.826 -5163.3501 741.04199 9.2197031e-39
778.80499 -4565.1797 741.09802 9.2197031e-39
804.93201 -4602.1699 753.20898 9.2197031e-39
834.55798 -4600.2598 756.93201 9.2197031e-39
1722.04 -4058.3601 757.87402 9.2197031e-39
-189.12399 -5272.6499 766.64502 9.2197031e-39
862.60999 -4603.6499 761.64502 9.2197031e-39
892.30402 -4600.21 765.03003 9.2197031e-39
920.367 -4603.1602 769.64203 9.2197031e-39
1998.54 -3931.6599 767.784 9.2197031e-39
673.91803 -4784.2402 776.36401 9.2197031e-39
708.68402 -4737.7002 770.62299 9.2197031e-39
978.13501 -4600.7002 777.19202 9.2197031e-39
950.07098 -4599.1797 772.90399 9.2197031e-39
1007.68 -4585.4502 777.862 9.2197031e-39
1729.9399 -4179.3203 786.58899 9.2197031e-39
3156.3799 -3303.3301 786.96301 9.2197031e-39
3718.5801 -2939.3401 782.83398 9.2197031e-39
-191.742 -5409.6602 797.54602 9.2197031e-39
3144.27 -3333.04 792.04303 9.2197031e-39
3111.71 -3407.1499 804.383 9.2197031e-39
3146.1799 -3407.8601 809.38501 9.2197031e-39
3150.6001 -3370.1001 801.38898 9.2197031e-39
1730.1 -4290.8896 812.073 9.2197031e-39
3119.1299 -3456.99 816.80103 9.2197031e-39
-188.03101 -5538.2798 827.41901 9.2197031e-39
1985.3 -4192.4102 825.43201 9.2197031e-39
2283.1299 -3991.4099 821.38 9.2197031e-39
2308.3799 -3987.1899 823.961 9.2197031e-39
3123.6201 -3494.75 826.04797 9.2197031e-39
1414.36 -4580.25 833.77698 9.2197031e-39
1443.65 -4587.8101 839.61298 9.2197031e-39
2285.0701 -4061.71 837.69598 9.2197031e-39
4165.7002 -2906.21 838.05298 9.2197031e-39
5827.8101 -1885.5699 838.508 9.2197031e-39
1474.54 -4586.5601 843.66602 9.2197031e-39
1502.9399 -4586.9102 847.73401 9.2197031e-39
3129.6899 -3579.99 846.35303 9.2197031e-39
3135.1399 -3550.71 840.43597 9.2197031e-39
4235.1899 -2898.5701 846.06799 9.2197031e-39
4244.1699 -2873.2 841.53699 9.2197031e-39
4343.0298 -2847.1201 849.46802 9.2197031e-39
1534.15 -4586.04 851.91498 9.2197031e-39
1561.88 -4582.1001 854.91199 9.2197031e-39
1593.58 -4582.54 859.46301 9.2197031e-39
1617.02 -4557.25 856.98297 9.2197031e-39
1643.62 -4533.4297 855.28198 9.2197031e-39
1671.73 -4532.46 859.008 9.2197031e-39
2175.97 -4223.9902 859.41101 9.2197031e-39
3131.1299 -3627.46 857.388 9.2197031e-39
4323.6201 -2868.3101 851.57703 9.2197031e-39
5839.52 -1936.95 851.87598 9.2197031e-39
-190.856 -5692.8501 862.297 9.2197031e-39
1702.6899 -4528.96 862.55603 9.2197031e-39
1730.58 -4526.5898 865.93103 9.2197031e-39
2090.6499 -4316.71 868.59003 9.2197031e-39
2106.6101 -4272.9502 860.84399 9.2197031e-39
2208.05 -4221.5898 863.36798 9.2197031e-39
2234.54 -4217.1001 866.06097 9.2197031e-39
5886.1802 -1978.64 867.94397 9.2197031e-39
1763.51 -4530.02 871.33801 9.2197031e-39
2269.99 -4221.0801 871.94897 9.2197031e-39
2299.3799 -4222.2197 876.336 9.2197031e-39
2329.46 -4213.2002 878.5 9.2197031e-39
4500.7798 -2873.9299 877.73602 9.2197031e-39
5920.3501 -2034.14 885.40601 9.2197031e-39
-185.395 -5834.23 895.32898 9.2197031e-39
2206.0801 -4365.7197 895.98297 9.2197031e-39
4120.4302 -3203.9399 899.64203 9.2197031e-39
2130.9099 -4502.4102 916.62299 9.2197031e-39
4127.3901 -3252.0701 911.60498 9.2197031e-39
3577.4399 -3643.6299 923.74597 9.2197031e-39
3704.8401 -3706.6599 956.01801 9.2197031e-39
-217.47501 -6320.2402 1001.74 9.2197031e-39
-184.00301 -6366.7402 1017.05 9.2197031e-39
3947.27 -3875.54 1028.6 9.2197031e-39
7377 -1834.95 1044.48 9.2197031e-39
7415.3101 -1902.66 1065.3101 9.2197031e-39
4438.6802 -3984.8899 1122.55 9.2197031e-39
4499.04 -3974.5701 1128.67 9.2197031e-39
4551.8501 -3970.95 1135.26 9.2197031e-39
4611.0098 -3957.79 1140.5699 9.2197031e-39
4657.7402 -3948.3201 1144.97 9.2197031e-39
5737.9502 -3268.6201 1141.52 9.2197031e-39
5790.46 -3233.1699 1140.8 9.2197031e-39
4723.5601 -3937.97 1151.85 9.2197031e-39
5734.5898 -3309.0601 1150.28 9.2197031e-39
7925.0298 -1998.34 1158.72 9.2197031e-39
5737.4102 -3367.04 1163.91 9.2197031e-39
4629.4902 -4175.1699 1192.77 9.2197031e-39
4981.8599 -4070.7 1218.4 9.2197031e-39
-411.246 -7624.3501 1272.15 9.2197031e-39
4721 -4467.4102 1272.3101 9.2197031e-39
-359.483 -7637.5298 1282.42 9.2197031e-39
4781.8301 -4467.7402 1280.9301 9.2197031e-39
-245.61301 -7641.4902 1299.3199 9.2197031e-39
-298.61301 -7634.9702 1290.39 9.2197031e-39
4857.3198 -4464.3398 1290.75 9.2197031e-39
4917.1201 -4461.8301 1298.5699 9.2197031e-39
-186.604 -7647.4702 1308.97 9.2197031e-39
-131.883 -7643.46 1315.73 9.2197031e-39
-73.621498 -7653.2002 1326.14 9.2197031e-39
-21.051701 -7660.8599 1335.27 9.2197031e-39
38.910599 -7659.8701 1343.46 9.2197031e-39
92.193802 -7661.7998 1351.38 9.2197031e-39
152.108 -7659.73 1359.3199 9.2197031e-39
5666.5 -4230.0898 1350.91 9.2197031e-39
7338.8101 -3213.46 1353.71 9.2197031e-39
204.592 -7666.6001 1368.26 9.2197031e-39
5669.2402 -4297.6396 1366.71 9.2197031e-39
7329.7998 -3280.27 1367.6899 9.2197031e-39
7328.3301 -3332.27 1379.35 9.2197031e-39
7523.2002 -3214.1599 1379.76 9.2197031e-39
259.01401 -7713.0601 1386.5 9.2197031e-39
5675.0898 -4352.3701 1380.02 9.2197031e-39
5626.52 -4439.9102 1393.1801 9.2197031e-39
5681.98 -4424.2803 1397.4 9.2197031e-39
7326.4902 -3401.8799 1394.98 9.2197031e-39
7323.9399 -3454.1899 1406.5601 9.2197031e-39
7958.71 -3076.22 1409.4301 9.2197031e-39
7760.5801 -3208.6201 1411.83 9.2197031e-39
296.37201 -7870.8799 1427.77 9.2197031e-39
7329.1401 -3526.96 1423.9 9.2197031e-39
7955.1899 -3131.1399 1421.47 9.2197031e-39
358.83499 -7859.98 1434.05 9.2197031e-39
7325.4702 -3579.6201 1435.4 9.2197031e-39
7930.75 -3199.1299 1433.55 9.2197031e-39
7328.3501 -3652.55 1452.45 9.2197031e-39
7331.8101 -3708.6001 1465.73 9.2197031e-39
7334.1802 -3782.4099 1482.9 9.2197031e-39
8656.9102 -3168.1299 1528.4399 9.2197031e-39
