# .PCD v0.7 - Point Cloud Data file format
VERSION 0.7
FIELDS x y z rgb
SIZE 4 4 4 4
TYPE F F F F
COUNT 1 1 1 1
WIDTH 326
HEIGHT 1
VIEWPOINT 0 0 0 1 0 0 0
POINTS 326
DATA ascii
-841.36499 -2273.72 36.912498 9.2197031e-39
-847.14001 -2258.1299 32.4645 9.2197031e-39
882.84399 -1535.0815 39.728249 9.2197031e-39
874.41901 -1523.569 35.999001 9.2197031e-39
877.64899 -1519.058 35.235901 9.2197031e-39
885.61804 -1514.8679 35.058197 9.2197031e-39
894.37299 -1507.8921 34.279999 9.2197031e-39
1119.9301 -1417.556 36.193802 9.2197031e-39
1135.5699 -1414.0911 37.0144 9.2197031e-39
2445.6599 -853.539 39.321098 9.2197031e-39
2440.6899 -841.69501 35.880299 9.2197031e-39
2436.28 -828.90198 32.265499 9.2197031e-39
-562.44098 -2197.96 48.111301 9.2197031e-39
-584.84198 -2176.04 40.331501 9.2197031e-39
-457.33899 -2132.52 43.266998 9.2197031e-39
622.28601 -1666.63 44.1991 9.2197031e-39
642.29901 -1659.3149 44.540798 9.2197031e-39
696.77197 -1631.6631 43.569401 9.2197031e-39
710.98798 -1630.041 44.6903 9.2197031e-39
713.73602 -1624.9661 43.737099 9.2197031e-39
728.63098 -1622.442 44.709 9.2197031e-39
784.23297 -1590.699 42.853001 9.2197031e-39
833.53198 -1594.9341 49.1632 9.2197031e-39
835.961 -1562.0859 41.352001 9.2197031e-39
863.06598 -1568.116 45.7309 9.2197031e-39
836.68597 -1559.5659 40.810398 9.2197031e-39
862.65802 -1546.2849 40.323399 9.2197031e-39
887.00818 -1543.5515 42.254463 9.2197031e-39
886.81635 -1536.0331 40.386631 9.2197031e-39
891.73102 -1535.377 40.750801 9.2197031e-39
916.28998 -1534.78 43.229198 9.2197031e-39
1136.8201 -1455.0034 47.200798 9.2197031e-39
1145.3667 -1452.1046 47.401932 9.2197031e-39
1138.4399 -1449.8159 46.0989 9.2197031e-39
1147.39 -1448.425 46.714001 9.2197031e-39
1156.27 -1444.845 46.783852 9.2197031e-39
1163.1625 -1442.4893 46.941448 9.2197031e-39
1145.515 -1433.8994 42.944649 9.2197031e-39
1154.2122 -1434.5494 44.033699 9.2197031e-39
1163.95 -1438.2949 45.994499 9.2197031e-39
1146.765 -1428.0845 41.649525 9.2197031e-39
1245.26 -1405.8721 46.7197 9.2197031e-39
1274.25 -1397.938 47.869499 9.2197031e-39
2443.5901 -897.01801 49.783401 9.2197031e-39
2438.77 -884.58398 46.213001 9.2197031e-39
2441.49 -869.784 42.867298 9.2197031e-39
-838.60699 -2348.0601 55.473301 9.2197031e-39
779.71503 -1649.865 56.9076 9.2197031e-39
798.38 -1630.405 54.121201 9.2197031e-39
822.60199 -1606.657 50.8755 9.2197031e-39
1353.92 -1378.672 51.651199 9.2197031e-39
1399.1801 -1365.7 53.302101 9.2197031e-39
1449.08 -1350.679 54.945702 9.2197031e-39
1480.34 -1339.379 55.510899 9.2197031e-39
1503.64 -1329.26 55.5149 9.2197031e-39
1538.47 -1315.98 55.975101 9.2197031e-39
1580.79 -1299.8359 56.531502 9.2197031e-39
1599.8 -1289.536 56.032799 9.2197031e-39
1660.92 -1266.689 56.952801 9.2197031e-39
2439.05 -939.76501 59.800598 9.2197031e-39
2443.28 -924.85699 56.590401 9.2197031e-39
2447.1399 -909.24902 53.1675 9.2197031e-39
702.97601 -1726.77 67.601799 9.2197031e-39
746.63098 -1683.053 61.5256 9.2197031e-39
2439.79 -966.66199 66.488197 9.2197031e-39
2443.3601 -952.21204 63.320099 9.2197031e-39
2442.8701 -1006.212 76.5355 9.2197031e-39
2440 -993.45001 73.093399 9.2197031e-39
2444.8 -978.80798 70.008904 9.2197031e-39
530.28998 -1892.03 89.748001 9.2197031e-39
-161.263 -2610.73 192.414 9.2197031e-39
-833.67401 -3247.8601 277.08499 9.2197031e-39
-837.37598 -3221.8601 270.30301 9.2197031e-39
-682.04199 -3215.77 285.40799 9.2197031e-39
-823.81 -3300.04 290.961 9.2197031e-39
-665.85797 -3259.52 297.888 9.2197031e-39
-679.82703 -3244.51 292.70801 9.2197031e-39
-834.276 -3343.3301 300.479 9.2197031e-39
-689.039 -3317.04 309.54401 9.2197031e-39
-686.99402 -3379.8899 325.20499 9.2197031e-39
-705.51599 -3366.97 320.04999 9.2197031e-39
-715.90601 -3446.1101 338.38599 9.2197031e-39
-683.20697 -3443.1699 341.159 9.2197031e-39
-697.92999 -3494.8401 352.27899 9.2197031e-39
-664.46002 -3490.71 354.84399 9.2197031e-39
-635.17401 -3489.3799 357.64499 9.2197031e-39
-606.37299 -3489.9099 360.85501 9.2197031e-39
-575.51801 -3485.55 363.08099 9.2197031e-39
3976.54 -1541.11 371.89801 9.2197031e-39
-611.914 -3570.55 380.07599 9.2197031e-39
-800.04303 -3858.71 430.76901 9.2197031e-39
-800.66602 -3904.1499 441.86801 9.2197031e-39
-806.32202 -3955.47 453.87201 9.2197031e-39
-805.52502 -4001.3 465.21899 9.2197031e-39
2124.98 -2716.74 462.841 9.2197031e-39
2143.9099 -2714.51 464.31799 9.2197031e-39
2161.6799 -2711.8398 465.561 9.2197031e-39
-804.01898 -4044.95 476.103 9.2197031e-39
2122.6599 -2784.1499 479.15701 9.2197031e-39
2128.8 -2767.8799 475.81601 9.2197031e-39
2149.97 -2767.9199 478.08801 9.2197031e-39
2190.6699 -2719.78 470.60999 9.2197031e-39
-801.29999 -4090.27 487.53101 9.2197031e-39
2101.2 -2833.1399 488.89999 9.2197031e-39
2114.04 -2823.1799 487.82599 9.2197031e-39
2119.4099 -2805.3799 484.026 9.2197031e-39
2240.75 -2750.29 483.45901 9.2197031e-39
2257.5901 -2744 483.715 9.2197031e-39
2264.98 -2729.1099 480.845 9.2197031e-39
-793.534 -4126.79 497.33499 9.2197031e-39
1030.34 -3339.71 498.89999 9.2197031e-39
2088.8201 -2869.1599 496.42801 9.2197031e-39
2092.46 -2847.1001 491.39499 9.2197031e-39
-757.40002 -4123.6001 500.41299 9.2197031e-39
-716.69501 -4110.1602 501.46201 9.2197031e-39
-681.54999 -4106.9399 504.427 9.2197031e-39
-649.30402 -4105.1797 507.44101 9.2197031e-39
996.40997 -3393.1599 508.40701 9.2197031e-39
1046.91 -3343.8601 501.69 9.2197031e-39
1064.2 -3342 503.08301 9.2197031e-39
1938.9 -2961.79 503.16199 9.2197031e-39
1975.59 -2959.5601 506.534 9.2197031e-39
1949.65 -2949.54 501.29999 9.2197031e-39
2065.97 -2919.0901 506.25201 9.2197031e-39
2084.6899 -2917.6699 507.90302 9.2197031e-39
2104.71 -2916.3301 509.716 9.2197031e-39
2349.8899 -2790.23 504.93799 9.2197031e-39
-619.65399 -4109.6299 511.703 9.2197031e-39
-585.09998 -4102.96 513.758 9.2197031e-39
2028.67 -2980.6201 517.38397 9.2197031e-39
2048.1799 -2980.49 519.43701 9.2197031e-39
2007.5 -2979.3601 514.81201 9.2197031e-39
2062.9199 -2971.75 518.86401 9.2197031e-39
2077.48 -2964.1299 518.54797 9.2197031e-39
1013.66 -3456.8101 525.89099 9.2197031e-39
1899.39 -3056.0701 522.10199 9.2197031e-39
1939.5 -3059.04 527.11902 9.2197031e-39
1913.76 -3046.97 521.40302 9.2197031e-39
-607.65002 -4195.3398 534.04602 9.2197031e-39
1908.84 -3107.03 535.63501 9.2197031e-39
1985.04 -3069.3799 534.52802 9.2197031e-39
1982.0699 -3096.9299 540.98102 9.2197031e-39
1930.39 -3184.24 556.909 9.2197031e-39
-712.67999 -4431.3799 580.815 9.2197031e-39
-678.92999 -4433.54 584.953 9.2197031e-39
-645.60101 -4432.9502 588.37299 9.2197031e-39
-563.20898 -4403.5303 589.95099 9.2197031e-39
1093.1801 -3645.3899 580.72601 9.2197031e-39
-614.85602 -4439.6201 593.297 9.2197031e-39
3384.05 -2692.6099 591.495 9.2197031e-39
3471.77 -2683.6201 598.664 9.2197031e-39
3405.75 -2677.8301 590.18597 9.2197031e-39
3482.0701 -2662.3501 594.539 9.2197031e-39
1176.13 -3698.01 602.51898 9.2197031e-39
1140.23 -3775.1799 617.64502 9.2197031e-39
-611.02802 -4559.9297 623.26801 9.2197031e-39
1224.9399 -3784.3999 628.96503 9.2197031e-39
1161.85 -3778.2 620.698 9.2197031e-39
-559.02698 -4591.7803 636.65198 9.2197031e-39
-591.38098 -4586.6299 631.927 9.2197031e-39
-523.74402 -4587.1499 639.28601 9.2197031e-39
1246.53 -3783.77 631.11798 9.2197031e-39
1267.01 -3782.1201 632.901 9.2197031e-39
5785.23 -1841.05 638.92798 9.2197031e-39
5814.2202 -1802.99 632.67499 9.2197031e-39
-491.513 -4591.6499 643.83698 9.2197031e-39
-456.10101 -4585.4399 646.09497 9.2197031e-39
1211.38 -3865.8501 647.52802 9.2197031e-39
3568.1699 -2818.02 641.992 9.2197031e-39
-424.01501 -4589.29 650.47101 9.2197031e-39
-389.728 -4584.1797 652.88098 9.2197031e-39
-323.40601 -4580.7197 659.11902 9.2197031e-39
-353.867 -4578.3701 655.28601 9.2197031e-39
5817.9399 -1886.27 653.53699 9.2197031e-39
-290.87399 -4581.48 662.78302 9.2197031e-39
-260.51901 -4583.25 666.46301 9.2197031e-39
-190.507 -4565.3301 669.54401 9.2197031e-39
-212.30701 -4543.1602 661.76703 9.2197031e-39
5840.5801 -1929.11 666.48199 9.2197031e-39
1744.7 -3759.8201 678.48199 9.2197031e-39
1761.1 -3738.05 674.88702 9.2197031e-39
3881.99 -2825.5901 677.396 9.2197031e-39
-175.272 -4609.8896 682.12 9.2197031e-39
1728.4301 -3779.3101 681.53302 9.2197031e-39
1794.27 -3769.5701 686.17798 9.2197031e-39
5882.23 -1976.54 682.58698 9.2197031e-39
1136.5 -4106.1104 698.55701 9.2197031e-39
1718.9301 -3825.8701 691.95599 9.2197031e-39
5931.5698 -2023.59 699.422 9.2197031e-39
1947.6899 -3795.4399 708.93201 9.2197031e-39
3126.9299 -3279.9099 708.31403 9.2197031e-39
1854.4399 -3872.3201 717.85303 9.2197031e-39
3132.29 -3318.6599 718.40802 9.2197031e-39
3157.3501 -3273.71 710.04401 9.2197031e-39
4140.3101 -2881.8 718.82001 9.2197031e-39
4330.9302 -2796.99 718.35699 9.2197031e-39
5977.1401 -2073.25 716.49402 9.2197031e-39
3132.8899 -3352.22 726.71899 9.2197031e-39
4132.6099 -2912.3799 725.508 9.2197031e-39
4210.6899 -2880.8999 726.12 9.2197031e-39
4227.9702 -2854.0601 721.37299 9.2197031e-39
4294.9902 -2849.8999 727.51501 9.2197031e-39
4330.1699 -2829.79 726.33301 9.2197031e-39
3098.3799 -3389.74 732.25 9.2197031e-39
3117.8 -3373.79 730.40601 9.2197031e-39
3106.24 -3433.04 743.72699 9.2197031e-39
744.992 -4520.3896 758.49902 9.2197031e-39
3108.77 -3470.3601 753.16803 9.2197031e-39
772.89203 -4523.77 762.31097 9.2197031e-39
3120.29 -3518.96 766.34003 9.2197031e-39
797.17999 -4561.7998 774.25 9.2197031e-39
826.11401 -4554.0303 775.43402 9.2197031e-39
853.11902 -4554.7197 778.49103 9.2197031e-39
4110.9902 -3141.3601 779.45898 9.2197031e-39
4656.54 -2890.6299 776.16803 9.2197031e-39
7296.3599 -1747.49 777.46698 9.2197031e-39
7364.5801 -1697.5659 772.492 9.2197031e-39
-279.74701 -5082.3901 787.04797 9.2197031e-39
-314.99399 -5078.3198 782.28003 9.2197031e-39
708.40601 -4625.4297 780.39502 9.2197031e-39
881.5 -4555.2002 781.64301 9.2197031e-39
908.52502 -4555.4297 784.58801 9.2197031e-39
936.922 -4555.4297 787.62299 9.2197031e-39
964.05902 -4547.4297 788.55798 9.2197031e-39
2260.1299 -3959.6101 782.66602 9.2197031e-39
2286.1699 -3956.26 784.62701 9.2197031e-39
2302.1599 -3930.6899 780.05499 9.2197031e-39
4098.9702 -3171.2 785.50598 9.2197031e-39
-244.825 -5081.9302 790.66998 9.2197031e-39
-206.231 -5075.1201 793.12201 9.2197031e-39
672.20801 -4694.1602 793.41498 9.2197031e-39
4084.9099 -3198.21 790.64099 9.2197031e-39
7365.3301 -1806.6 799.36298 9.2197031e-39
4092.6399 -3239.6499 801.64899 9.2197031e-39
7370.5498 -1860.2 813.091 9.2197031e-39
-210.869 -5195.25 822.14099 9.2197031e-39
2064.6299 -4229.0801 827.97998 9.2197031e-39
2162.28 -4184.2998 827.414 9.2197031e-39
2188.6599 -4176.1001 828.22101 9.2197031e-39
1409.86 -4545.2998 835.68903 9.2197031e-39
1438.26 -4540.9297 837.64801 9.2197031e-39
1381.03 -4534.8203 830.03101 9.2197031e-39
2218.1299 -4177.9102 831.81403 9.2197031e-39
2247.73 -4176.23 834.56598 9.2197031e-39
2274.97 -4172.1899 836.48602 9.2197031e-39
2328.2 -4157.5703 838.58197 9.2197031e-39
1466.55 -4545.1499 841.70898 9.2197031e-39
1494.96 -4540.27 843.54901 9.2197031e-39
1521.96 -4535.4102 845.23901 9.2197031e-39
1551.99 -4539.5801 849.474 9.2197031e-39
1604.15 -4512.25 848.33398 9.2197031e-39
1627.62 -4490.3701 845.46802 9.2197031e-39
1655.76 -4485.0498 847.16901 9.2197031e-39
1857.89 -4379.5801 842.86102 9.2197031e-39
2308.46 -4177.7803 841.43903 9.2197031e-39
-213.282 -5320.79 852.72998 9.2197031e-39
1579.17 -4535.1899 851.30103 9.2197031e-39
1684.22 -4487.3501 850.776 9.2197031e-39
1712.36 -4481.5303 852.35498 9.2197031e-39
1740.95 -4483.3301 855.85101 9.2197031e-39
1771.22 -4485.4502 859.60699 9.2197031e-39
1844.77 -4436.8999 855.53998 9.2197031e-39
2183.24 -4303.3101 858.89697 9.2197031e-39
2120.99 -4297.29 850.763 9.2197031e-39
1797.3101 -4476.4199 860.17902 9.2197031e-39
1827.6899 -4478.0098 863.815 9.2197031e-39
3675.8899 -3670.52 862.96899 9.2197031e-39
2094.22 -4468.7402 890.02899 9.2197031e-39
2125.0801 -4466.5498 892.78998 9.2197031e-39
3833.6899 -3760.22 901.87598 9.2197031e-39
5732.2798 -3219.3401 971.91998 9.2197031e-39
5732.27 -3267.6699 983.79498 9.2197031e-39
4420.7598 -3947.6299 1010.68 9.2197031e-39
4480.6899 -3943.22 1016 9.2197031e-39
-319.50201 -6077.4702 1027.3 9.2197031e-39
4540.5098 -3940.02 1021.61 9.2197031e-39
4588.0298 -3925.0701 1023.01 9.2197031e-39
4649 -3920.8799 1028.5 9.2197031e-39
-375.29999 -6120.8599 1031.99 9.2197031e-39
-277.39499 -6087.79 1034.33 9.2197031e-39
4703.98 -3909.4199 1031.5601 9.2197031e-39
-243.27699 -6119.9702 1045.89 9.2197031e-39
4901.0498 -3992.02 1072.92 9.2197031e-39
-291.25699 -6481.1401 1129.5 9.2197031e-39
4793.6899 -4270.54 1129.88 9.2197031e-39
7328.6499 -3207.1499 1139.5601 9.2197031e-39
7467.02 -3186.8201 1149.36 9.2197031e-39
7320.3701 -3265.45 1153 9.2197031e-39
4726.8101 -4432.1699 1162.45 9.2197031e-39
7321.8701 -3323.9099 1167.53 9.2197031e-39
4801.6602 -4438.3501 1171.96 9.2197031e-39
4864.3999 -4431.1299 1176.9 9.2197031e-39
7714.3101 -3189.47 1176.4399 9.2197031e-39
7959.8701 -3063.1799 1171.66 9.2197031e-39
4929.8701 -4427.6699 1183.04 9.2197031e-39
7330.3701 -3387.8101 1184.14 9.2197031e-39
7965.2002 -3126.3899 1187.76 9.2197031e-39
7330.6899 -3446.6899 1198.64 9.2197031e-39
7934.6099 -3184.1699 1198.6899 9.2197031e-39
5645.25 -4191.2598 1201.42 9.2197031e-39
5662.4502 -4258.5303 1219.79 9.2197031e-39
7328.5298 -3508.1201 1213.5 9.2197031e-39
7327.6899 -3567.3301 1227.96 9.2197031e-39
5660.1201 -4312.0898 1232.7 9.2197031e-39
5655.0298 -4367.2998 1245.72 9.2197031e-39
7333.6099 -3632.26 1244.55 9.2197031e-39
5646.5498 -4418.0601 1257.29 9.2197031e-39
7330.6401 -3691.53 1258.79 9.2197031e-39
8642.2402 -3150.03 1265.9399 9.2197031e-39
7334.3198 -3756.6399 1275.1801 9.2197031e-39
-457.625 -7572.1099 1379.77 9.2197031e-39
-512.56897 -7557.6401 1370.34 9.2197031e-39
-402.78699 -7575.0898 1386.37 9.2197031e-39
-344.88 -7576.1899 1392.83 9.2197031e-39
-292.14099 -7587.77 1401.3101 9.2197031e-39
-233.881 -7585.96 1407.09 9.2197031e-39
-179.339 -7587.9902 1413.42 9.2197031e-39
-123.197 -7595.7202 1421.3199 9.2197031e-39
-79.403801 -7658.3301 1441.39 9.2197031e-39
-21.3445 -7657.4702 1447.38 9.2197031e-39
99.762199 -7599.8599 1446.17 9.2197031e-39
33.1674 -7660.5698 1453.97 9.2197031e-39
152.658 -7609.6899 1454.24 9.2197031e-39
208.884 -7615.4702 1461.67 9.2197031e-39
245.509 -7761.7598 1501.53 9.2197031e-39
297.99301 -7813.1602 1519.77 9.2197031e-39
