# .PCD v0.7 - Point Cloud Data file format
VERSION 0.7
FIELDS x y z rgb
SIZE 4 4 4 4
TYPE F F F F
COUNT 1 1 1 1
WIDTH 317
HEIGHT 1
VIEWPOINT 0 0 0 1 0 0 0
POINTS 317
DATA ascii
254.53751 -1203.9885 134.67999 9.2197031e-39
264.74451 -1205.3505 137.41501 9.2197031e-39
272.39499 -1204.631 139.465 9.2197031e-39
271.92401 -762.19202 139.3385 9.2197031e-39
271.62701 -455.42102 139.259 9.2197031e-39
274.27301 -445.71399 139.968 9.2197031e-39
272.78149 -430.8645 139.5685 9.2197031e-39
268.10101 1309.9301 138.314 9.2197031e-39
252.00101 1310 134 9.2197031e-39
277.53299 -1205.423 140.842 9.2197031e-39
282.38199 -1200.176 142.14101 9.2197031e-39
291.88901 -1190.558 144.688 9.2197031e-39
286.733 -1187.901 143.30701 9.2197031e-39
295.65302 -1174.224 145.69701 9.2197031e-39
299.397 -1160.8579 146.7 9.2197031e-39
300.04901 -1116.6111 146.875 9.2197031e-39
289.96399 -973.94 144.172 9.2197031e-39
291.03699 -954.70496 144.46001 9.2197031e-39
282.82501 -801.48804 142.25999 9.2197031e-39
279.55499 -790.88 141.383 9.2197031e-39
284.21252 -794.15503 142.6315 9.2197031e-39
275.52499 -773.297 140.304 9.2197031e-39
282.98099 -773.05298 142.30099 9.2197031e-39
284.71149 -766.586 142.7655 9.2197031e-39
299.72699 -761.61499 146.78799 9.2197031e-39
303.63699 -764.52863 147.83632 9.2197031e-39
288.40234 -753.08667 143.75366 9.2197031e-39
294.77234 -757.89893 145.461 9.2197031e-39
305.18951 -757.65851 148.252 9.2197031e-39
283.56567 -747.4057 142.45801 9.2197031e-39
291.40399 -742.26697 144.558 9.2197031e-39
305.10901 -747.05798 148.231 9.2197031e-39
296.26901 -725.91901 145.862 9.2197031e-39
306.07599 -477.155 148.49001 9.2197031e-39
309.75299 -465.70898 149.47501 9.2197031e-39
286.56732 -456.39566 143.26234 9.2197031e-39
293.24249 -453.64374 145.05075 9.2197031e-39
309.29501 -456.79901 149.35201 9.2197031e-39
311.28851 -457.12851 149.88651 9.2197031e-39
275.11899 -448.884 140.19501 9.2197031e-39
284.82901 -449.79852 142.79651 9.2197031e-39
297.19235 -446.99765 146.10899 9.2197031e-39
306.47726 -444.98175 148.5975 9.2197031e-39
278.30499 -437.263 141.048 9.2197031e-39
283.07825 -436.39777 142.32774 9.2197031e-39
306.939 -437.14798 148.72101 9.2197031e-39
282.629 -428.914 142.207 9.2197031e-39
284.11499 1304.71 142.605 9.2197031e-39
300.371 1312.34 146.961 9.2197031e-39
314.01651 -463.88351 150.61749 9.2197031e-39
314.237 -440.52399 150.67599 9.2197031e-39
312.23099 -437.55701 150.13901 9.2197031e-39
316.45499 1310.84 151.271 9.2197031e-39
332.55899 1310.1801 155.586 9.2197031e-39
349.01199 1316.37 159.994 9.2197031e-39
365.69199 1324.4 164.464 9.2197031e-39
381.97601 1324.3 168.827 9.2197031e-39
398.34299 1325.05 173.213 9.2197031e-39
414.564 1323.65 177.55901 9.2197031e-39
431.42099 1329.08 182.076 9.2197031e-39
448.58301 1336.33 186.674 9.2197031e-39
1319.33 1069.4399 419.98901 9.2197031e-39
1336.0601 1063.88 424.47299 9.2197031e-39
1366.46 1078.74 432.61801 9.2197031e-39
1430.88 620.46997 449.88 9.2197031e-39
1414.77 1056.87 445.56201 9.2197031e-39
1427.86 1689.48 449.07101 9.2197031e-39
1412.33 1757.6001 444.909 9.2197031e-39
1430.77 1847.6499 449.85001 9.2197031e-39
1459.9301 586.71997 457.66501 9.2197031e-39
1449.89 597.58997 454.97198 9.2197031e-39
1439.75 608.37 452.255 9.2197031e-39
1434.4301 1054.34 450.832 9.2197031e-39
1467.51 1164.1899 459.694 9.2197031e-39
1464.63 1712.1699 458.923 9.2197031e-39
1454.9 1792.27 456.31699 9.2197031e-39
1479.63 504.80005 462.94101 9.2197031e-39
1500.64 504.06006 468.573 9.2197031e-39
1484.01 528.43994 464.116 9.2197031e-39
1489.53 553.57996 465.59399 9.2197031e-39
1482.6 567.42004 463.73901 9.2197031e-39
1469.1899 575.07996 460.14401 9.2197031e-39
1497.86 1050.88 467.828 9.2197031e-39
1494.84 1721.24 467.01901 9.2197031e-39
1514.34 496.59998 472.24301 9.2197031e-39
1530.99 491.51001 476.70401 9.2197031e-39
1540.99 1620.9199 479.38501 9.2197031e-39
1524.1899 1635.9299 474.88101 9.2197031e-39
1510.08 1702.0901 471.10199 9.2197031e-39
1538.61 1707.0901 478.74701 9.2197031e-39
1549.15 487.46997 481.57001 9.2197031e-39
1568.85 484.42004 486.849 9.2197031e-39
1569.76 1626.24 487.09201 9.2197031e-39
1654.25 -4285.3799 509.73099 9.2197031e-39
1653.4 -3858.6201 509.50299 9.2197031e-39
1654.37 -3785.77 509.76401 9.2197031e-39
1650.15 -3704.1001 508.63199 9.2197031e-39
1645.95 -3558.8301 507.50699 9.2197031e-39
1650.74 873.57996 508.79001 9.2197031e-39
1619.5601 1057.6801 500.435 9.2197031e-39
1639.8101 1052.8101 505.86301 9.2197031e-39
1623.85 1250.89 501.58499 9.2197031e-39
1625.25 1631.6101 501.96201 9.2197031e-39
1623.28 1671.9199 501.43399 9.2197031e-39
1682.3199 -4457.5498 517.25299 9.2197031e-39
1665.36 -4221.5801 512.70801 9.2197031e-39
1661.08 -4121.8301 511.56299 9.2197031e-39
1659.39 -4032.5601 511.10901 9.2197031e-39
1655.92 -3942.6799 510.17801 9.2197031e-39
1667.39 -3538.96 513.25098 9.2197031e-39
1669.22 1495.3899 513.742 9.2197031e-39
1712.4399 -3769.8799 525.323 9.2197031e-39
1699.5601 -3541.21 521.87201 9.2197031e-39
1728.76 -3536.8899 529.69598 9.2197031e-39
1695.9 1060.1899 520.89203 9.2197031e-39
1762.0699 -3540.21 538.62201 9.2197031e-39
1739.48 1051.4 532.56897 9.2197031e-39
1787.72 -3528.22 545.495 9.2197031e-39
1829.2 -3545.72 556.60999 9.2197031e-39
1853.5 -3530.49 563.12 9.2197031e-39
1892.63 -3541.8899 573.604 9.2197031e-39
1921.28 -3533.8501 581.28302 9.2197031e-39
1955.4 -3534.9399 590.42499 9.2197031e-39
1984.62 -3527.1101 598.25403 9.2197031e-39
1975.14 -3055.3701 595.71503 9.2197031e-39
1990.6 -3032.47 599.85699 9.2197031e-39
2019.46 -3528.3101 607.59003 9.2197031e-39
1994.53 -3224.8401 600.91101 9.2197031e-39
1996.09 -3178.6899 601.32898 9.2197031e-39
2003.74 -3142.48 603.37799 9.2197031e-39
2006.39 -3010.28 604.08698 9.2197031e-39
2021.35 -2987.2 608.09497 9.2197031e-39
2057.05 -3533.3101 617.66302 9.2197031e-39
2049.72 -3411.8601 615.69598 9.2197031e-39
2035 -3336.6499 611.75299 9.2197031e-39
2046.16 -2977.4299 614.74402 9.2197031e-39
2085.9199 -3523.6001 625.39697 9.2197031e-39
2072.1399 -2968.95 621.70599 9.2197031e-39
2099.95 -2962.52 629.15601 9.2197031e-39
2095.21 -2914.8701 627.88702 9.2197031e-39
2123.3501 -2908.8601 635.42603 9.2197031e-39
2145.8799 -2895.6699 641.46198 9.2197031e-39
2169.23 -443.78799 647.71997 9.2197031e-39
2143.78 -428.65198 640.90198 9.2197031e-39
2160.54 -409.746 645.39001 9.2197031e-39
2147.3301 -393.76501 641.85199 9.2197031e-39
2152.24 -375.858 643.16699 9.2197031e-39
2151.24 -358.577 642.89899 9.2197031e-39
2180.3601 -2896.5801 650.703 9.2197031e-39
2193.6001 -459.44098 654.25 9.2197031e-39
2236.1299 -2921.76 665.646 9.2197031e-39
2221.3701 -2864.3601 661.69098 9.2197031e-39
2237.77 -2843.53 666.086 9.2197031e-39
2240.02 -474.11798 666.68903 9.2197031e-39
2273.73 -2844.52 675.72198 9.2197031e-39
2315.8501 -2851.5601 687.00598 9.2197031e-39
2321.9399 -506.4364 688.638 9.2197031e-39
2297.9199 -488.995 682.203 9.2197031e-39
2352.5701 -524.05872 696.84698 9.2197031e-39
2366.29 -2866.6399 700.521 9.2197031e-39
2396.99 -561.23822 708.74902 9.2197031e-39
2375.3401 -542.43689 702.948 9.2197031e-39
2429.99 -2894.53 717.59198 9.2197031e-39
2430.1599 -600 717.63702 9.2197031e-39
2412.6899 -580.4787 712.95599 9.2197031e-39
2451.3 -2876.8799 723.30103 9.2197031e-39
2448.4299 -619.84412 722.53198 9.2197031e-39
2539.47 1217.15 746.92499 9.2197031e-39
2527.8701 1240.83 743.81702 9.2197031e-39
2561.3501 -2949.45 752.789 9.2197031e-39
2633.3799 1257.8 772.08899 9.2197031e-39
2679.97 1226.25 784.57202 9.2197031e-39
2662.9299 1246.92 780.00598 9.2197031e-39
2723.5901 331.32098 796.26202 9.2197031e-39
2748.74 1243.73 803 9.2197031e-39
2796.6299 1244.62 815.83099 9.2197031e-39
2855.8601 1252.71 831.703 9.2197031e-39
2930.76 382.05902 851.77002 9.2197031e-39
2937.05 1274.97 853.45502 9.2197031e-39
2997.05 1281 869.53302 9.2197031e-39
3067.1699 -1087.7161 888.32098 9.2197031e-39
3061.3999 1288.8101 886.77698 9.2197031e-39
3101.49 -3448.79 897.51898 9.2197031e-39
3095.97 -3394.03 896.039 9.2197031e-39
3093.28 -3343 895.31702 9.2197031e-39
3093.5 -3295.6001 895.37701 9.2197031e-39
3105.3501 -3259.79 898.552 9.2197031e-39
3109.5701 -3217.3501 899.68402 9.2197031e-39
3081.6599 -1063.984 892.20599 9.2197031e-39
3122.05 -3182.8999 903.02698 9.2197031e-39
3238.1899 -653.96277 934.146 9.2197031e-39
3299.4199 -682.61438 950.55298 9.2197031e-39
3370.1201 -59.799011 969.49701 9.2197031e-39
3343.5701 -35.643982 962.38202 9.2197031e-39
3432.3701 -3412.1101 986.177 9.2197031e-39
3523.8899 27.801025 1010.7 9.2197031e-39
3595.0601 -933.25598 1029.77 9.2197031e-39
3582.3501 -901.646 1026.36 9.2197031e-39
3583.8 -871.46802 1026.75 9.2197031e-39
3568.6201 -840.10199 1022.68 9.2197031e-39
3596.9299 -963.96802 1030.27 9.2197031e-39
3662.6001 1277.42 1047.87 9.2197031e-39
3697.9099 -3593.46 1057.33 9.2197031e-39
3701.6399 -818.43201 1058.33 9.2197031e-39
3694.29 1138.14 1056.36 9.2197031e-39
3694.2 1176.76 1056.33 9.2197031e-39
3686.8401 1211.88 1054.36 9.2197031e-39
3670.5801 1242.38 1050.01 9.2197031e-39
3715.6201 -1008.55 1062.0699 9.2197031e-39
3742.76 934.01001 1069.35 9.2197031e-39
3744.76 972.27002 1069.88 9.2197031e-39
3727.8401 1002.14 1065.35 9.2197031e-39
3722.99 1037.62 1064.05 9.2197031e-39
3709.0601 1068.92 1060.3199 9.2197031e-39
3709.6799 1107.41 1060.48 9.2197031e-39
3776.6599 -791.23596 1078.4301 9.2197031e-39
3768.48 -758.94897 1076.24 9.2197031e-39
3817.6399 780.17004 1089.41 9.2197031e-39
3825.75 1408.84 1091.58 9.2197031e-39
3894.3201 270.56 1109.96 9.2197031e-39
3884.03 302.73297 1107.2 9.2197031e-39
3887.53 338.41498 1108.14 9.2197031e-39
3879.48 371.224 1105.98 9.2197031e-39
3893.55 410.16998 1109.75 9.2197031e-39
3858.6299 685.67004 1100.39 9.2197031e-39
3882.52 842.79004 1106.8 9.2197031e-39
3931.75 -64.601013 1119.99 9.2197031e-39
3917.6599 137.66699 1116.21 9.2197031e-39
3908.45 204.61798 1113.74 9.2197031e-39
3897.75 236.755 1110.88 9.2197031e-39
3896.0601 446.23999 1110.42 9.2197031e-39
3902.8899 483.81006 1112.25 9.2197031e-39
3901.3899 664.14001 1111.85 9.2197031e-39
3918.75 895.31995 1116.5 9.2197031e-39
3935.1699 -97.996002 1120.9 9.2197031e-39
3936.8601 176.13898 1121.35 9.2197031e-39
3939.46 640.39001 1122.05 9.2197031e-39
3992.1499 620.87 1136.17 9.2197031e-39
3982.23 999.62 1133.51 9.2197031e-39
4070.5801 1591.3401 1157.1801 9.2197031e-39
4053.6399 1626.74 1152.65 9.2197031e-39
4267.4102 670.93994 1209.9301 9.2197031e-39
4235.5898 1066.25 1201.4 9.2197031e-39
4257.1001 1940.9099 1207.16 9.2197031e-39
4279.8198 635.18005 1213.25 9.2197031e-39
4403.9302 -3898.27 1246.5 9.2197031e-39
4457.7998 -3881.0901 1260.9399 9.2197031e-39
4490.6401 2195.5701 1269.74 9.2197031e-39
4514.7998 -3865.5801 1276.21 9.2197031e-39
4554.7402 -1265.7329 1286.92 9.2197031e-39
4564.9702 -1227.531 1289.66 9.2197031e-39
4576.5498 -3852.8 1292.76 9.2197031e-39
4569.1401 -1188.412 1290.77 9.2197031e-39
4567.23 -1148.5339 1290.26 9.2197031e-39
4576.2998 2197.4399 1292.6899 9.2197031e-39
4634.4702 -3836.26 1308.28 9.2197031e-39
4671.0801 -4371.3101 1318.09 9.2197031e-39
4695.6099 -3821.2 1324.66 9.2197031e-39
4752.2402 -4372.77 1339.84 9.2197031e-39
4781.77 2217.77 1347.75 9.2197031e-39
4824.6899 -4365.5898 1359.25 9.2197031e-39
4822.73 2132 1358.72 9.2197031e-39
4896.6001 -4356.77 1378.52 9.2197031e-39
4874.4302 2218.8701 1372.58 9.2197031e-39
5522.6099 -4350.1699 1546.26 9.2197031e-39
5610.7202 -3803 1569.87 9.2197031e-39
5606.4102 -3736.24 1568.71 9.2197031e-39
5606.46 -3672.72 1568.72 9.2197031e-39
5600.7402 -3606.5801 1567.1899 9.2197031e-39
5614.0801 -4344.3501 1570.77 9.2197031e-39
5642.2202 -4293.5601 1578.3 9.2197031e-39
5632.6401 -4217.4902 1575.74 9.2197031e-39
5634.4199 -4149.9399 1576.21 9.2197031e-39
5627.27 -4077.3301 1574.3 9.2197031e-39
5629.2002 -4011.3899 1574.8199 9.2197031e-39
5622.1499 -3940.54 1572.9301 9.2197031e-39
5620.1401 -3873.6201 1572.39 9.2197031e-39
5683.1699 -3527.02 1589.28 9.2197031e-39
5682.6802 -3464.6799 1589.15 9.2197031e-39
5681.5498 -3402.5701 1588.84 9.2197031e-39
5681.5298 -3341.5701 1588.84 9.2197031e-39
5679.1499 -3279.9299 1588.2 9.2197031e-39
5677.02 -3218.96 1587.63 9.2197031e-39
5683.0601 -3162.3899 1589.25 9.2197031e-39
5691.5498 -3594.29 1591.52 9.2197031e-39
5694.75 -3108.75 1592.38 9.2197031e-39
7250.27 -3165.6399 2009.1801 9.2197031e-39
7242.0098 -852.70703 2006.97 9.2197031e-39
7264.9702 -3756.8999 2013.12 9.2197031e-39
7267.3101 -3682.8701 2013.75 9.2197031e-39
7260.8999 -3605.5901 2012.03 9.2197031e-39
7263.5801 -3532.79 2012.75 9.2197031e-39
7255.6802 -3456.1399 2010.63 9.2197031e-39
7254.2402 -3382.73 2010.24 9.2197031e-39
7253.9102 -3310.25 2010.15 9.2197031e-39
7260.1499 -3240.74 2011.83 9.2197031e-39
7255.1899 -3096.46 2010.5 9.2197031e-39
7423.4502 -3084.1799 2055.5801 9.2197031e-39
7627.8398 -3081.1001 2110.3501 9.2197031e-39
7696.3301 620.66003 2128.7 9.2197031e-39
7705.3799 553.20996 2131.1299 9.2197031e-39
7761.8398 -2976.98 2146.25 9.2197031e-39
7812.4502 -3067.8899 2159.8201 9.2197031e-39
7799.1899 -2914.4399 2156.26 9.2197031e-39
7804.4102 -2477.1299 2157.6599 9.2197031e-39
7795.4702 -2402.98 2155.27 9.2197031e-39
7796.2402 -2331.52 2155.47 9.2197031e-39
7798.2598 -2260.5898 2156.01 9.2197031e-39
7797.77 -2189.3599 2155.8799 9.2197031e-39
7790.02 -2116.9302 2153.8101 9.2197031e-39
7788.2798 -2046.04 2153.3401 9.2197031e-39
7794.4702 -1976.86 2155 9.2197031e-39
7826.7598 -2848.6499 2163.6499 9.2197031e-39
7831.4702 -2776.1201 2164.9099 9.2197031e-39
7825.2598 -2700.8301 2163.25 9.2197031e-39
7822.1099 -2626.8301 2162.3999 9.2197031e-39
7814.54 -2552.0698 2160.3799 9.2197031e-39
