# .PCD v0.7 - Point Cloud Data file format
VERSION 0.7
FIELDS x y z rgb
SIZE 4 4 4 4
TYPE F F F F
COUNT 1 1 1 1
WIDTH 337
HEIGHT 1
VIEWPOINT 0 0 0 1 0 0 0
POINTS 337
DATA ascii
7456.4199 -2814.28 28.4401 9.2197031e-39
1164.79 -2300.26 39.910702 9.2197031e-39
1142.0601 -2295.9302 39.291901 9.2197031e-39
1153.23 -2293.085 38.267853 9.2197031e-39
1163.15 -2298.395 39.452248 9.2197031e-39
1137.88 -2285.3398 36.563499 9.2197031e-39
1143.86 -2288.585 37.289249 9.2197031e-39
1157.91 -2287.5801 36.689701 9.2197031e-39
1161.41 -2285.71 36.106602 9.2197031e-39
847.698 -2270.6001 39.487801 9.2197031e-39
866.61646 -2272.355 39.508598 9.2197031e-39
872.88599 -2274.0349 39.808502 9.2197031e-39
865.745 -2251.6401 33.999298 9.2197031e-39
882.07605 -2254.3052 34.325897 9.2197031e-39
-840.72302 -2110.1099 36.5466 9.2197031e-39
-851.29602 -2092.7 32.148201 9.2197031e-39
7462.04 -2884.28 46.992599 9.2197031e-39
1137.99 -2331.3599 48.843201 9.2197031e-39
1154.0525 -2315.6426 44.269653 9.2197031e-39
806.44897 -2301.1602 48.6185 9.2197031e-39
840.89001 -2303.04 48.305099 9.2197031e-39
1142.574 -2303.3582 41.262199 9.2197031e-39
1153.1633 -2304.0598 41.199234 9.2197031e-39
815.47699 -2295.8198 46.980598 9.2197031e-39
823.086 -2292.55 45.927601 9.2197031e-39
1143.2 -2298.77 40.022598 9.2197031e-39
856.729 -2283.01 42.584599 9.2197031e-39
864.6955 -2282.52 42.266098 9.2197031e-39
675.78802 -2271.05 43.669601 9.2197031e-39
686.28802 -2270.1001 43.166901 9.2197031e-39
704.04199 -2275.1602 44.096901 9.2197031e-39
753.45697 -2271.21 41.876301 9.2197031e-39
778.16803 -2275.01 42.3055 9.2197031e-39
787.677 -2272.76 41.482498 9.2197031e-39
839.22198 -2273.52 40.464901 9.2197031e-39
866.24335 -2277.8567 40.985035 9.2197031e-39
426.53799 -2260.8599 46.8395 9.2197031e-39
460.95901 -2262.4102 46.439999 9.2197031e-39
586.63098 -2267.3 44.7752 9.2197031e-39
659.047 -2265.47 42.575298 9.2197031e-39
360.53699 -2250.2 45.551701 9.2197031e-39
-844.62201 -2156.1401 48.9254 9.2197031e-39
-842.91998 -2141.3398 44.933701 9.2197031e-39
-842.76202 -2124.8799 40.535801 9.2197031e-39
7452.98 -2923.5801 57.694 9.2197031e-39
1287.16 -2381.1802 58.6166 9.2197031e-39
1298.41 -2384.53 59.2458 9.2197031e-39
1236.65 -2352.02 52.026199 9.2197031e-39
704.44299 -2327.5698 58.077099 9.2197031e-39
741.20398 -2319.6699 55.1008 9.2197031e-39
756.66699 -2310.5601 52.302101 9.2197031e-39
-845.55103 -2172.5601 53.3283 9.2197031e-39
5463.0801 -2792.8999 69.835297 9.2197031e-39
1321.95 -2403.02 63.623299 9.2197031e-39
1331.15 -2405.95 64.189102 9.2197031e-39
642.73999 -2348.73 65.182701 9.2197031e-39
7463.3501 -2994.4199 76.356598 9.2197031e-39
1438.4399 -2466.05 77.694199 9.2197031e-39
503.25299 -2384.77 78.098999 9.2197031e-39
5419.48 -2863.21 89.631699 9.2197031e-39
5409.3701 -2835.3899 82.444 9.2197031e-39
1501.24 -2506.9399 87.124702 9.2197031e-39
1473.87 -2483.1499 81.422798 9.2197031e-39
1545.16 -2541.3999 95.284599 9.2197031e-39
1538.0699 -2536.99 94.274696 9.2197031e-39
1501.65 -2528.5698 92.886803 9.2197031e-39
1532.51 -2523.26 90.741402 9.2197031e-39
1600.6801 -2584.3 105.422 9.2197031e-39
4365.4302 -2892 122.223 9.2197031e-39
7466.8501 -3216.3101 135.498 9.2197031e-39
4362.1499 -2930.4299 132.55499 9.2197031e-39
7467.27 -3257.2 146.403 9.2197031e-39
6922.54 -3237.71 154.071 9.2197031e-39
-260.92801 -2617.3398 158.228 9.2197031e-39
-250.735 -2601.4199 153.739 9.2197031e-39
6757.27 -3246.46 160.311 9.2197031e-39
-291.27701 -2649.95 167.649 9.2197031e-39
6794.4399 -3317.01 178.265 9.2197031e-39
2101.4099 -2888.9399 174.90199 9.2197031e-39
2107.48 -2943.7 189.373 9.2197031e-39
2107 -2936.99 187.595 9.2197031e-39
2106.05 -2916.9399 182.265 9.2197031e-39
2113 -2914.9099 181.558 9.2197031e-39
2127.3899 -2983.1699 199.436 9.2197031e-39
2124.74 -2974.6299 197.222 9.2197031e-39
2137.1599 -3017.3799 208.338 9.2197031e-39
2131.5601 -3006.46 205.55499 9.2197031e-39
2120.0901 -3033.9099 213.15199 9.2197031e-39
2131.03 -3034.21 212.97301 9.2197031e-39
-825.72101 -2793.3601 218.55499 9.2197031e-39
2162.8101 -3093.8301 228.138 9.2197031e-39
2171.7 -3092.21 227.493 9.2197031e-39
2101.77 -3078.4399 225.472 9.2197031e-39
1914.38 -3064.5801 226.1985 9.2197031e-39
2005.52 -3061 223.091 9.2197031e-39
2024.87 -3069.24 224.834 9.2197031e-39
2095.4199 -3066.05 222.313 9.2197031e-39
1934.7151 -3054.4648 223.01801 9.2197031e-39
1964.41 -3055.3301 222.547 9.2197031e-39
1972.1 -3054.6201 222.177 9.2197031e-39
-839.255 -2831.72 229.11301 9.2197031e-39
1861.88 -3105.02 238.233 9.2197031e-39
1890.5 -3103.6299 237.188 9.2197031e-39
1919.3199 -3101.54 235.948 9.2197031e-39
1928.6899 -3102.5901 236.006 9.2197031e-39
2099.3101 -3106.3899 232.989 9.2197031e-39
2104.29 -3102.28 231.77299 9.2197031e-39
1886.97 -3092.7 234.35201 9.2197031e-39
-834.01599 -2864.77 237.81 9.2197031e-39
-839.07501 -2849.3201 233.806 9.2197031e-39
1849.66 -3144.9199 249.173 9.2197031e-39
1858 -3127.085 244.215 9.2197031e-39
1880.28 -3115.5701 240.61501 9.2197031e-39
-838.466 -2901.4399 247.702 9.2197031e-39
-836.39899 -2883.3601 242.827 9.2197031e-39
1839.29 -3173.6699 257.091 9.2197031e-39
1849.54 -3176.28 257.54599 9.2197031e-39
1848.96 -3152.46 251.201 9.2197031e-39
-834.69202 -2935.6899 256.75601 9.2197031e-39
-833.98999 -2917.8201 251.97 9.2197031e-39
1834.91 -3201.5 264.62201 9.2197031e-39
1835.53 -3193.1499 262.37799 9.2197031e-39
-832.09302 -2970.75 266.05099 9.2197031e-39
-829.96802 -2952.05 261.01199 9.2197031e-39
1841.55 -3233.76 273.07401 9.2197031e-39
-836.138 -3008.9299 276.33701 9.2197031e-39
-835.42102 -2990.3799 271.371 9.2197031e-39
1857.59 -3262.5601 280.38199 9.2197031e-39
-824.73499 -3059.8899 289.67099 9.2197031e-39
-830.24103 -3043.5601 285.44199 9.2197031e-39
-829.96698 -3024.9199 280.45901 9.2197031e-39
-830.89099 -3081.48 295.578 9.2197031e-39
-833.41803 -3120.9399 306.168 9.2197031e-39
-834.125 -3101.9399 301.116 9.2197031e-39
-826.18402 -3156.3701 315.45401 9.2197031e-39
-827.35101 -3137.29 310.39001 9.2197031e-39
1991.1 -3450.8401 327.48099 9.2197031e-39
-824.39801 -3194.98 325.71899 9.2197031e-39
-828.71899 -3177.1001 321.048 9.2197031e-39
-824.39001 -3235.22 336.45901 9.2197031e-39
-826.57001 -3215.8601 331.341 9.2197031e-39
2040.9399 -3525.25 346.16599 9.2197031e-39
1088.33 -3452.48 349.25101 9.2197031e-39
-822.61798 -3275.27 347.10599 9.2197031e-39
-817.49402 -3251.52 340.64499 9.2197031e-39
1045.29 -3457.99 351.73901 9.2197031e-39
1058.8199 -3459.6001 351.84698 9.2197031e-39
1066.76 -3453.49 350.02899 9.2197031e-39
1080.63 -3459.6899 351.358 9.2197031e-39
-679.79401 -3334.0601 359.423 9.2197031e-39
-828.505 -3320.52 359.32199 9.2197031e-39
-815.43298 -3291.55 351.28201 9.2197031e-39
1038.26 -3515.1599 367.164 9.2197031e-39
-663.22101 -3364.7 367.20801 9.2197031e-39
-677.54797 -3353.74 364.62299 9.2197031e-39
-735.79901 -3349.1001 364.76001 9.2197031e-39
-820.99103 -3336.8401 363.50201 9.2197031e-39
1024.38 -3526.8701 370.617 9.2197031e-39
-823.77698 -3381.6101 375.51599 9.2197031e-39
-650.72498 -3377.75 370.397 9.2197031e-39
-824.849 -3361.1799 370.08899 9.2197031e-39
-691.70599 -3470.4299 396.10101 9.2197031e-39
-700.18701 -3454.97 392.17499 9.2197031e-39
2155.28 -3771.95 409.30701 9.2197031e-39
2001.23 -3760.77 409.96301 9.2197031e-39
2165.8701 -3768.0701 408.022 9.2197031e-39
2195.6899 -3769.5801 407.72 9.2197031e-39
2193.45 -3749.28 402.35501 9.2197031e-39
1015.96 -3638.01 400.479 9.2197031e-39
-711.505 -3508.1101 406.62799 9.2197031e-39
1827.27 -3772.4399 417.19 9.2197031e-39
1934.36 -3772.9199 414.78799 9.2197031e-39
1969.86 -3770.48 413.298 9.2197031e-39
2048.5801 -3773.8799 412.34299 9.2197031e-39
2074.74 -3773.2 411.54501 9.2197031e-39
2091.02 -3777.8501 412.40302 9.2197031e-39
2116.8701 -3775.8 411.242 9.2197031e-39
2128.6599 -3773.76 410.42001 9.2197031e-39
1692.3101 -3769.9299 419.707 9.2197031e-39
1713.41 -3768.9299 418.94199 9.2197031e-39
1724.84 -3769.8101 418.90601 9.2197031e-39
1744.41 -3764.8899 417.133 9.2197031e-39
1756.71 -3767.3 417.48401 9.2197031e-39
1779.45 -3768.1001 417.16101 9.2197031e-39
1791.38 -3769.3701 417.21701 9.2197031e-39
1811.16 -3763.6799 415.233 9.2197031e-39
1846.71 -3765.49 414.87399 9.2197031e-39
1857.75 -3764.55 414.36301 9.2197031e-39
1884.52 -3769.9299 415.16699 9.2197031e-39
1893.63 -3765.3601 413.73199 9.2197031e-39
1919.21 -3767.6899 413.75 9.2197031e-39
1955.11 -3766.3999 412.556 9.2197031e-39
1991.76 -3765.1699 411.362 9.2197031e-39
2031.38 -3767.22 410.97299 9.2197031e-39
-699.41699 -3545.4099 416.29599 9.2197031e-39
-709.76599 -3528.9199 412.13901 9.2197031e-39
-819.98999 -3514.48 410.89001 9.2197031e-39
1630.8199 -3775.48 422.642 9.2197031e-39
1681.7 -3770.6001 420.13699 9.2197031e-39
1649.37 -3769.8601 420.70499 9.2197031e-39
1659.6 -3768.52 420.10501 9.2197031e-39
-689.60498 -3585.1001 426.659 9.2197031e-39
-654.76501 -3580.3101 424.55801 9.2197031e-39
-625.43402 -3581.52 424.186 9.2197031e-39
-573.21802 -3585.6699 424.06 9.2197031e-39
-594.78998 -3578.99 422.78699 9.2197031e-39
-689.49902 -3560.26 420.02701 9.2197031e-39
1218.9399 -3767.8201 430.32999 9.2197031e-39
-573.51501 -3608.55 430.17499 9.2197031e-39
1129.39 -3813.21 444.56201 9.2197031e-39
1644.22 -3890.6899 453.077 9.2197031e-39
1646.2 -3926.47 462.57901 9.2197031e-39
1178.23 -3910.23 469.30301 9.2197031e-39
1166.05 -3901.6299 467.29599 9.2197031e-39
1196.51 -3905.6699 467.65201 9.2197031e-39
1207.9 -3906.3701 467.57001 9.2197031e-39
1257.42 -3908.3101 466.92001 9.2197031e-39
1268.6 -3907.6499 466.479 9.2197031e-39
1287.54 -3905.99 465.58701 9.2197031e-39
1647.6 -3990.3501 479.59601 9.2197031e-39
1232.4301 -3949.46 478.492 9.2197031e-39
1302.49 -3927.0601 470.85901 9.2197031e-39
1648.55 -4027.27 489.42801 9.2197031e-39
1609.3101 -4016.4199 487.45901 9.2197031e-39
-790.78497 -3848.99 499.483 9.2197031e-39
-790.90601 -3823.1599 492.59201 9.2197031e-39
1644.6899 -4082.3101 504.20901 9.2197031e-39
-786.15601 -3875.1699 506.35999 9.2197031e-39
1757.62 -4118.8101 511.284 9.2197031e-39
-794.16602 -3909.1001 515.60498 9.2197031e-39
1631.08 -4151.5898 523.02197 9.2197031e-39
-788.797 -3963.0601 529.88202 9.2197031e-39
-787.23602 -3934.1899 522.13898 9.2197031e-39
1634.86 -4205.4502 537.30701 9.2197031e-39
-787.427 -3994.4299 538.22101 9.2197031e-39
-786.21802 -4021.47 545.40997 9.2197031e-39
1175.16 -4233.4902 555.65503 9.2197031e-39
-786.672 -4055.8799 554.60498 9.2197031e-39
-785.50201 -4083.8 562.03101 9.2197031e-39
-783.74799 -4147.3604 578.95398 9.2197031e-39
-784.23602 -4117.8398 571.08502 9.2197031e-39
-672.61499 -4197.8101 589.79102 9.2197031e-39
-639.08301 -4190.0601 586.93103 9.2197031e-39
-786.09698 -4186.7197 589.513 9.2197031e-39
-603.89099 -4186.3896 585.12 9.2197031e-39
-577.69598 -4186.1396 584.43402 9.2197031e-39
1677.74 -4424.0601 594.64301 9.2197031e-39
-785.52301 -4217.1899 597.633 9.2197031e-39
-738.98102 -4203.8398 592.96899 9.2197031e-39
-714.05499 -4207.1299 593.258 9.2197031e-39
-656.18597 -4322.21 622.60602 9.2197031e-39
1630.64 -4623.9502 649.10797 9.2197031e-39
1644.42 -4612.4102 645.70203 9.2197031e-39
1671.7 -4607.7803 643.823 9.2197031e-39
1688.38 -4607.2002 643.27197 9.2197031e-39
1716.26 -4603.96 641.75 9.2197031e-39
-545.95502 -4410.6602 643.61102 9.2197031e-39
-601.19202 -4405.7002 643.591 9.2197031e-39
-567.87598 -4396.1899 640.26703 9.2197031e-39
1611.99 -4662.9297 659.953 9.2197031e-39
-546.36401 -4447.3301 653.40698 9.2197031e-39
1475.98 -4662.6797 663.09998 9.2197031e-39
1549.48 -4663.7197 661.64001 9.2197031e-39
1566.5699 -4663.96 661.30103 9.2197031e-39
1594.9 -4663 660.37402 9.2197031e-39
1457.65 -4655.1602 661.526 9.2197031e-39
1502.64 -4656.0498 660.70001 9.2197031e-39
1519.6801 -4656.6104 660.44702 9.2197031e-39
-727.38 -4490.4102 669.18201 9.2197031e-39
-695.96802 -4485.9399 667.24701 9.2197031e-39
-542.75299 -4488.7998 664.39099 9.2197031e-39
-745.224 -4468.04 663.63501 9.2197031e-39
801.77301 -4663.0898 679.14001 9.2197031e-39
819.21997 -4664.5498 679.11603 9.2197031e-39
845.52301 -4663.6104 678.24597 9.2197031e-39
862.66498 -4668.6201 679.17798 9.2197031e-39
889.07202 -4666.29 677.93103 9.2197031e-39
906.60498 -4662.3203 676.45697 9.2197031e-39
932.659 -4668.23 677.41901 9.2197031e-39
950.04602 -4663.96 675.86798 9.2197031e-39
993.47101 -4669.6899 676.37299 9.2197031e-39
976.40698 -4659.77 674.12799 9.2197031e-39
760.10101 -4641.6499 674.40302 9.2197031e-39
777.93402 -4638.5898 673.164 9.2197031e-39
-516.61902 -4536.75 676.57001 9.2197031e-39
-189.327 -4647.54 698.40802 9.2197031e-39
-166.23199 -4647.3799 697.81897 9.2197031e-39
-582.35199 -4584.3701 690.83301 9.2197031e-39
-400.577 -4671.1201 709.69397 9.2197031e-39
-369.17899 -4673.1001 709.47998 9.2197031e-39
-342.85501 -4670.2402 708.09497 9.2197031e-39
-311.62701 -4671.5601 707.70801 9.2197031e-39
-290.67099 -4677.5601 708.81598 9.2197031e-39
-259.97501 -4679.1299 708.50897 9.2197031e-39
-231.98199 -4670.9199 705.65601 9.2197031e-39
697.383 -4795.9502 717.06799 9.2197031e-39
716.05103 -4797.1699 716.953 9.2197031e-39
-160.052 -4697.4102 711.02698 9.2197031e-39
-583.30902 -4676.9502 715.56799 9.2197031e-39
-521.51599 -4675.79 713.79602 9.2197031e-39
-484.63199 -4670.8799 711.61603 9.2197031e-39
-462.797 -4677.4297 712.84698 9.2197031e-39
-426.20401 -4671.7598 710.46997 9.2197031e-39
-542.948 -4667.9399 712.20898 9.2197031e-39
-157.45799 -4740.8301 722.55298 9.2197031e-39
-231.342 -5164.1899 837.29797 9.2197031e-39
-324.92801 -5174.6602 842.302 9.2197031e-39
-296.858 -5171.6802 840.84497 9.2197031e-39
-261.392 -5173.0601 840.375 9.2197031e-39
-201.30499 -5177.3799 840.10797 9.2197031e-39
-196.04401 -5228.0801 853.51599 9.2197031e-39
-213.89799 -5536.4102 936.23199 9.2197031e-39
-208.94 -5599.54 952.96503 9.2197031e-39
-244.474 -5812.4902 1010.64 9.2197031e-39
277.117 -7719.2798 1507.25 9.2197031e-39
178.823 -7703.5898 1505.39 9.2197031e-39
238.51801 -7705.3198 1504.4399 9.2197031e-39
139.813 -7692.79 1503.42 9.2197031e-39
-265.582 -7680.6201 1509.75 9.2197031e-39
-224.341 -7683.79 1509.63 9.2197031e-39
-162.972 -7682.0601 1507.71 9.2197031e-39
-121.899 -7684.5 1507.39 9.2197031e-39
-62.032902 -7688.3398 1507 9.2197031e-39
-324.577 -7670.9399 1508.5699 9.2197031e-39
-425.987 -7661.04 1508.3199 9.2197031e-39
-365.65701 -7666.1201 1508.25 9.2197031e-39
-528.263 -7652.1602 1508.37 9.2197031e-39
-630.95801 -7642.3901 1508.1899 9.2197031e-39
-569.78699 -7646.8101 1507.92 9.2197031e-39
-671.71399 -7633.5298 1506.78 9.2197031e-39
70.416199 -7747.2002 1519.59 9.2197031e-39
-469.702 -7664.8198 1510.36 9.2197031e-39
27.5348 -7755.6401 1522.85 9.2197031e-39
-32.0882 -7747.96 1522.21 9.2197031e-39
-757.09198 -7702.5801 1527.23 9.2197031e-39
-859.112 -7682.3398 1524.24 9.2197031e-39
-795.65399 -7684.5601 1523.33 9.2197031e-39
