# .PCD v0.7 - Point Cloud Data file format
VERSION 0.7
FIELDS x y z rgb
SIZE 4 4 4 4
TYPE F F F F
COUNT 1 1 1 1
WIDTH 320
HEIGHT 1
VIEWPOINT 0 0 0 1 0 0 0
POINTS 320
DATA ascii
254.554 -1203.9885 134.68451 9.2197031e-39
264.83701 -1208.849 137.4395 9.2197031e-39
272.36099 -1203.6321 139.45599 9.2197031e-39
273.42499 -780.64301 139.741 9.2197031e-39
272.92899 -764.58002 139.608 9.2197031e-39
269.698 -75.320007 138.742 9.2197031e-39
274.03601 -77.497986 139.90401 9.2197031e-39
252 -62 134 9.2197031e-39
261.103 -60.08197 136.439 9.2197031e-39
256.586 -56.020996 135.229 9.2197031e-39
265.983 -47.190002 137.74699 9.2197031e-39
277.53299 -1205.423 140.842 9.2197031e-39
284.71301 -1196.5334 142.7655 9.2197031e-39
291.82199 -1189.5601 144.67 9.2197031e-39
295.65302 -1174.224 145.69701 9.2197031e-39
300.07001 -1168.827 146.88 9.2197031e-39
300.04901 -1116.6111 146.875 9.2197031e-39
290.87201 -982.89099 144.416 9.2197031e-39
290.81799 -952.71802 144.401 9.2197031e-39
283.42999 -805.43896 142.422 9.2197031e-39
282.203 -797.53302 142.09299 9.2197031e-39
276.60101 -781.21899 140.592 9.2197031e-39
284.20401 -789.08301 142.629 9.2197031e-39
284.23749 -775.85901 142.638 9.2197031e-39
304.94174 -766.18652 148.1855 9.2197031e-39
286.26334 -756.68378 143.18066 9.2197031e-39
295.08881 -756.55042 145.54561 9.2197031e-39
304.85901 -750.35101 148.16299 9.2197031e-39
290.75 -749.71802 144.383 9.2197031e-39
303.267 -749.88 147.737 9.2197031e-39
308.96701 -467.53601 149.26401 9.2197031e-39
297.60199 -450.26599 146.21899 9.2197031e-39
309.745 -459.16299 149.47301 9.2197031e-39
310.77301 -453.103 149.748 9.2197031e-39
288.21167 -443.77234 143.70268 9.2197031e-39
293.90433 -446.1853 145.228 9.2197031e-39
302.87601 -442.5845 147.63251 9.2197031e-39
278.62399 -435.28998 141.134 9.2197031e-39
307.23569 -437.08835 148.80034 9.2197031e-39
279.19901 -422.216 141.28799 9.2197031e-39
290.04999 -422.314 144.19501 9.2197031e-39
284.07001 -416.48102 142.59351 9.2197031e-39
291.56299 -407.30499 144.601 9.2197031e-39
291.58099 -394.039 144.6055 9.2197031e-39
283.98099 -378.46002 142.569 9.2197031e-39
310.97601 -102.73401 149.80299 9.2197031e-39
296.823 -95.132996 146.01001 9.2197031e-39
305.43597 -95.025986 148.31799 9.2197031e-39
282.664 -80.969971 142.216 9.2197031e-39
290.87799 -88.580994 144.41701 9.2197031e-39
278.69199 -72.723999 141.15199 9.2197031e-39
287.23999 -78.273987 143.442 9.2197031e-39
311.875 -765.79102 150.043 9.2197031e-39
316.09399 -456.05948 151.174 9.2197031e-39
314.51669 -442.46265 150.75133 9.2197031e-39
312.57251 -434.48248 150.23001 9.2197031e-39
327.68301 -435.72998 154.27901 9.2197031e-39
311.888 -129.064 150.047 9.2197031e-39
334.944 10.994995 156.22501 9.2197031e-39
1318.79 1068.61 419.84698 9.2197031e-39
1339.3 1068.85 425.341 9.2197031e-39
1375.21 1091.9301 434.96301 9.2197031e-39
1424.42 1070.62 448.14899 9.2197031e-39
1428.3101 1690.3701 449.19199 9.2197031e-39
1416.27 1765.6201 445.966 9.2197031e-39
1425.76 1891.46 448.508 9.2197031e-39
1457.13 583.96997 456.914 9.2197031e-39
1448.5 596.19995 454.60001 9.2197031e-39
1436.99 605.56006 451.517 9.2197031e-39
1434.98 624.70996 450.978 9.2197031e-39
1441.33 1063.98 452.67999 9.2197031e-39
1460.02 1703.3799 457.68799 9.2197031e-39
1453.5699 1789.6101 455.95801 9.2197031e-39
1438.53 1863.75 451.92899 9.2197031e-39
1484 508.73999 464.11301 9.2197031e-39
1496.97 500.81006 467.58899 9.2197031e-39
1489.08 533.07996 465.47299 9.2197031e-39
1488.09 552.23999 465.20999 9.2197031e-39
1480.47 565.39001 463.16699 9.2197031e-39
1472.72 578.48999 461.09 9.2197031e-39
1471.99 1170.7 460.896 9.2197031e-39
1528.75 489.59998 476.10501 9.2197031e-39
1518.78 500.44995 473.43301 9.2197031e-39
1541.3101 1048.33 479.46899 9.2197031e-39
1512.73 1070.58 471.811 9.2197031e-39
1512.12 1100.16 471.64899 9.2197031e-39
1524.1899 1635.9299 474.88101 9.2197031e-39
1513.41 1708.1799 471.99399 9.2197031e-39
1541.99 1713.1499 479.65302 9.2197031e-39
1508.89 1747.48 470.78299 9.2197031e-39
1545.4 484.31995 480.564 9.2197031e-39
1576.41 490.65002 488.87399 9.2197031e-39
1544.97 1627.78 480.45099 9.2197031e-39
1573.8 1633.0601 488.17401 9.2197031e-39
1583.41 1072.11 490.75101 9.2197031e-39
1609.16 1605.47 497.651 9.2197031e-39
1653.01 -3710.45 509.39801 9.2197031e-39
1648.0601 -3563.3201 508.07401 9.2197031e-39
1637.2 859.31006 505.16199 9.2197031e-39
1644.88 1058.85 507.22198 9.2197031e-39
1635.87 1077.46 504.80499 9.2197031e-39
1623.28 1671.9199 501.43399 9.2197031e-39
1680.59 -4452.8896 516.78998 9.2197031e-39
1659.2 -4298.4102 511.05899 9.2197031e-39
1668.61 -4229.9199 513.58002 9.2197031e-39
1665.15 -4131.9902 512.65198 9.2197031e-39
1660.15 -4034.3999 511.311 9.2197031e-39
1657.46 -3946.3501 510.591 9.2197031e-39
1655.36 -3863.1799 510.02899 9.2197031e-39
1656.37 -3790.3201 510.30099 9.2197031e-39
1668.6801 -3541.6499 513.59802 9.2197031e-39
1673.53 1063.4301 514.89899 9.2197031e-39
1674.2 1502.76 515.078 9.2197031e-39
1715.76 -3777.1001 526.21399 9.2197031e-39
1700.4399 -3542.99 522.10699 9.2197031e-39
1703.01 1068.36 522.79797 9.2197031e-39
1733.22 -3545.76 530.89099 9.2197031e-39
1761.62 -3539.3301 538.50098 9.2197031e-39
1730.72 1070.67 530.22302 9.2197031e-39
1759.24 1073.34 537.86401 9.2197031e-39
1790.02 -3532.6101 546.112 9.2197031e-39
1832.01 -3550.97 557.36298 9.2197031e-39
1857.3 -3537.45 564.13898 9.2197031e-39
1890.21 -3537.5601 572.95697 9.2197031e-39
1924.22 -3539.02 582.07098 9.2197031e-39
1957.39 -3538.3701 590.95801 9.2197031e-39
1991.6801 -3539.05 600.14697 9.2197031e-39
2024.58 -3536.79 608.96198 9.2197031e-39
2060.1699 -3538.3799 618.49701 9.2197031e-39
2090.1299 -3530.3101 626.52502 9.2197031e-39
2124.3501 -3528.6101 635.69598 9.2197031e-39
2164.6299 -3535.6201 646.48798 9.2197031e-39
2171.1599 -443.63098 648.23602 9.2197031e-39
2141.8601 -428.82599 640.38599 9.2197031e-39
2152.8401 -410.513 643.32898 9.2197031e-39
2141.5701 -394.39301 640.30798 9.2197031e-39
2146.48 -376.53699 641.62402 9.2197031e-39
2166.5801 -356.62701 647.00897 9.2197031e-39
2195.3201 -3527.3 654.71198 9.2197031e-39
2198.4199 -459.09198 655.54102 9.2197031e-39
2232.1101 -3527.6499 664.56897 9.2197031e-39
2274.1001 -3534.8899 675.82098 9.2197031e-39
2257.3799 -473.01898 671.33899 9.2197031e-39
2316.3701 -3541.5901 687.14502 9.2197031e-39
2322.8999 -506.39279 688.89697 9.2197031e-39
2293.1001 -489.25702 680.90997 9.2197031e-39
2354.3 -3541.3101 697.30798 9.2197031e-39
2354.5 -523.98889 697.36401 9.2197031e-39
2394.1201 -3542.97 707.97998 9.2197031e-39
2394.1001 -561.29059 707.97302 9.2197031e-39
2372.45 -542.51538 702.172 9.2197031e-39
2423.3999 -600 715.82501 9.2197031e-39
2402.0701 -580.57471 710.10901 9.2197031e-39
2456.48 -3574.28 724.68903 9.2197031e-39
2454.23 -619.89648 724.08502 9.2197031e-39
2515.96 -3599.96 740.62598 9.2197031e-39
2541 1218.37 747.33502 9.2197031e-39
2531.6699 1243.91 744.83698 9.2197031e-39
2632.5601 -3698.3401 771.86902 9.2197031e-39
2660.6001 1245.14 779.38202 9.2197031e-39
2629.53 1254.79 771.05603 9.2197031e-39
2683.8701 1229.1899 785.61798 9.2197031e-39
2729.04 333.37299 797.72101 9.2197031e-39
2747.96 1243.15 802.789 9.2197031e-39
2806.3 -3865.5701 818.422 9.2197031e-39
2812.45 1256.09 820.07098 9.2197031e-39
2853.3899 -3867.0601 831.03998 9.2197031e-39
2883.3101 -3846.5 839.05798 9.2197031e-39
2869.3999 1262.34 835.32898 9.2197031e-39
2926.8899 -3842.3701 850.73401 9.2197031e-39
2959.8201 -3824.8701 859.55798 9.2197031e-39
2934.3999 383.39502 852.74597 9.2197031e-39
2940.25 1277.21 854.31403 9.2197031e-39
2998.6599 1282.1 869.96503 9.2197031e-39
3004.1799 -3820.51 871.44397 9.2197031e-39
3021.8401 -3569.4299 876.17603 9.2197031e-39
3047.3799 -3814.1001 883.02002 9.2197031e-39
3052.1799 -3550 884.30603 9.2197031e-39
3063.03 1289.9 887.21198 9.2197031e-39
3098.51 -3816 896.71997 9.2197031e-39
3107.6899 -3505.27 899.17902 9.2197031e-39
3104.27 -3451.5701 898.26398 9.2197031e-39
3104.3799 -3402.29 898.29199 9.2197031e-39
3094.6899 -3344.3601 895.69598 9.2197031e-39
3094.21 -3296.28 895.56799 9.2197031e-39
3103.1899 -3257.79 897.97498 9.2197031e-39
3073.8301 -1088.871 890.10797 9.2197031e-39
3089.3 -1065.236 894.25098 9.2197031e-39
3116.95 -3780.6599 901.65997 9.2197031e-39
3119.05 -3727.8101 902.22302 9.2197031e-39
3115.1899 -3564.1899 901.18903 9.2197031e-39
3111.74 -3219.3401 900.26501 9.2197031e-39
3125.6899 -3186.1799 904.00299 9.2197031e-39
3283.5801 -654.78308 946.30902 9.2197031e-39
3328.0701 -3319.8899 958.22998 9.2197031e-39
3304.25 -682.7453 951.84601 9.2197031e-39
3367.26 -60.294983 968.73102 9.2197031e-39
3353.0801 -33.906982 964.93103 9.2197031e-39
3527.6899 28.530029 1011.72 9.2197031e-39
3592.1799 -932.96802 1029 9.2197031e-39
3588.1201 -902.16901 1027.91 9.2197031e-39
3589.5801 -871.93896 1028.3 9.2197031e-39
3564.76 -839.823 1021.65 9.2197031e-39
3603.6499 -964.70001 1032.0699 9.2197031e-39
3669.72 1241.91 1049.78 9.2197031e-39
3661.74 1276.95 1047.64 9.2197031e-39
3693.47 -3589.6001 1056.14 9.2197031e-39
3700.3701 1141.21 1057.99 9.2197031e-39
3694.2 1176.76 1056.33 9.2197031e-39
3685.1201 1210.97 1053.9 9.2197031e-39
3736.27 -1702.83 1067.61 9.2197031e-39
3721.3799 -1009.229 1063.62 9.2197031e-39
3716.1001 -819.34698 1062.2 9.2197031e-39
3734.1299 967.47998 1067.03 9.2197031e-39
3735.78 1005.8 1067.48 9.2197031e-39
3721.24 1036.79 1063.58 9.2197031e-39
3715.1899 1071.88 1061.96 9.2197031e-39
3708.8101 1106.98 1060.25 9.2197031e-39
3750.79 -1742.08 1071.5 9.2197031e-39
3751.9199 -1673.29 1071.8 9.2197031e-39
3762.6899 -758.68701 1074.6899 9.2197031e-39
3746.3201 935.56995 1070.3 9.2197031e-39
3811.77 -1797.4399 1087.84 9.2197031e-39
3784.97 -1648.8 1080.66 9.2197031e-39
3789.2 -791.91602 1081.79 9.2197031e-39
3852.3201 -1633.6801 1098.7 9.2197031e-39
3826.6899 783.67004 1091.84 9.2197031e-39
3826.6001 1409.3101 1091.8101 9.2197031e-39
3886.8501 303.43298 1107.95 9.2197031e-39
3885.6599 337.93103 1107.63 9.2197031e-39
3879.48 371.224 1105.98 9.2197031e-39
3869.5801 689.57996 1103.33 9.2197031e-39
3872.6001 838.84998 1104.14 9.2197031e-39
3897.28 -1611.21 1110.75 9.2197031e-39
3930.9299 140.33899 1119.77 9.2197031e-39
3925.5 173.74701 1118.3101 9.2197031e-39
3909.3899 204.82599 1113.99 9.2197031e-39
3906.24 238.703 1113.15 9.2197031e-39
3903.74 272.81 1112.48 9.2197031e-39
3901.01 412.23999 1111.75 9.2197031e-39
3910.96 450.51001 1114.41 9.2197031e-39
3910.3201 486.01001 1114.24 9.2197031e-39
3905.05 665.41003 1112.83 9.2197031e-39
3924.1499 897.52002 1117.95 9.2197031e-39
3948.5801 -96.169006 1124.49 9.2197031e-39
3941.3201 -63.210022 1122.55 9.2197031e-39
3944.05 641.93994 1123.28 9.2197031e-39
3979.54 -1598.0139 1132.79 9.2197031e-39
3993.0701 621.17004 1136.42 9.2197031e-39
3994.72 1004.97 1136.86 9.2197031e-39
4054.3601 -1581.4771 1152.84 9.2197031e-39
4074.8 1593.76 1158.3199 9.2197031e-39
4065.4099 1633.6299 1155.8 9.2197031e-39
4125.4102 -1562.728 1171.88 9.2197031e-39
4247.23 1071.12 1204.52 9.2197031e-39
4266.1602 1946.6599 1209.59 9.2197031e-39
4274.2598 633.47998 1211.76 9.2197031e-39
4269.2598 671.52002 1210.42 9.2197031e-39
4397.79 -3893.3999 1244.86 9.2197031e-39
4459.3398 -3882.3 1261.35 9.2197031e-39
4521.79 -3870.9299 1278.09 9.2197031e-39
4493.0898 2197.1799 1270.4 9.2197031e-39
4561.4302 -1266.7681 1288.71 9.2197031e-39
4577.3301 -3853.3899 1292.97 9.2197031e-39
4569.7598 -1228.2271 1290.9399 9.2197031e-39
4573.9302 -1189.064 1292.0601 9.2197031e-39
4571.0601 -1149.021 1291.29 9.2197031e-39
4578.7598 2199.03 1293.35 9.2197031e-39
4673.3101 -4373.21 1318.6899 9.2197031e-39
4643.1201 -3842.6399 1310.6 9.2197031e-39
4703.52 -3826.9399 1326.78 9.2197031e-39
4752.9902 -4373.3999 1340.04 9.2197031e-39
4783.4302 2218.8 1348.1899 9.2197031e-39
4832.25 -4371.8203 1361.27 9.2197031e-39
4832.7598 2138 1361.41 9.2197031e-39
4876.0898 2219.8799 1373.02 9.2197031e-39
4904.21 -4362.9199 1380.5601 9.2197031e-39
5528.98 -4354.71 1547.96 9.2197031e-39
5610.9302 -3612.3 1569.92 9.2197031e-39
5621.29 -4349.3896 1572.7 9.2197031e-39
5647.8599 -4297.4199 1579.8101 9.2197031e-39
5639.1201 -4221.8501 1577.47 9.2197031e-39
5640.9302 -4154.2402 1577.96 9.2197031e-39
5633.8301 -4081.5701 1576.0601 9.2197031e-39
5635.79 -4015.5701 1576.58 9.2197031e-39
5628.77 -3944.6599 1574.7 9.2197031e-39
5619.3101 -3873.1101 1572.17 9.2197031e-39
5612.3999 -3804 1570.3101 9.2197031e-39
5616.5 -3742.1499 1571.41 9.2197031e-39
5617.4399 -3679.02 1571.66 9.2197031e-39
5684.1401 -3403.9099 1589.54 9.2197031e-39
5681.7598 -3281.22 1588.9 9.2197031e-39
5678.77 -3219.8101 1588.1 9.2197031e-39
5683.9399 -3162.8 1589.48 9.2197031e-39
5693.2598 -3595.23 1591.98 9.2197031e-39
5693.4502 -3532.5601 1592.03 9.2197031e-39
5693.8701 -3470.5801 1592.14 9.2197031e-39
5691.0801 -3346.3899 1591.4 9.2197031e-39
5701.8101 -3112 1594.27 9.2197031e-39
7250.7002 -853.021 2009.29 9.2197031e-39
7271.1699 -3759.6899 2014.78 9.2197031e-39
7265.5298 -3682.0901 2013.27 9.2197031e-39
7268.04 -3608.6599 2013.9399 9.2197031e-39
7268.0601 -3534.6699 2013.95 9.2197031e-39
7261.9702 -3458.71 2012.3199 9.2197031e-39
7260.5498 -3385.23 2011.9399 9.2197031e-39
7259.3301 -3312.3601 2011.61 9.2197031e-39
7258.3301 -3240.05 2011.34 9.2197031e-39
7256.6401 -3167.98 2010.89 9.2197031e-39
7260.6699 -3098.4099 2011.97 9.2197031e-39
7432.6099 -3087.3501 2058.04 9.2197031e-39
7695.3701 620.5 2128.4399 9.2197031e-39
7701.5498 552.62 2130.1001 9.2197031e-39
7802.0601 -2404.5601 2157.03 9.2197031e-39
7805.6699 -2333.6802 2158 9.2197031e-39
7799.21 -2260.8 2156.27 9.2197031e-39
7797.77 -2189.3599 2155.8799 9.2197031e-39
7795.71 -2118.0801 2155.3301 9.2197031e-39
7796.8198 -2047.6801 2155.6299 9.2197031e-39
7797.3301 -1977.38 2155.76 9.2197031e-39
