# .PCD v0.7 - Point Cloud Data file format
VERSION 0.7
FIELDS x y z rgb
SIZE 4 4 4 4
TYPE F F F F
COUNT 1 1 1 1
WIDTH 346
HEIGHT 1
VIEWPOINT 0 0 0 1 0 0 0
POINTS 346
DATA ascii
4194.3799 -3371.6799 39.9548 9.2197031e-39
4119.4502 -3318.28 31.105499 9.2197031e-39
2462.0901 -2920.4399 38.603199 9.2197031e-39
785.90601 -2492.78 39.622398 9.2197031e-39
796.76099 -2495.96 39.723 9.2197031e-39
805.992 -2497.8501 39.59515 9.2197031e-39
41.560101 -2297.23 38.612598 9.2197031e-39
21.2645 -2283.1802 36.322899 9.2197031e-39
1.49954 -2271.23 34.540901 9.2197031e-39
-123.107 -2229.6602 32.0793 9.2197031e-39
2457.6699 -2946.8301 45.746399 9.2197031e-39
2472.0801 -2940.46 43.1315 9.2197031e-39
1337.61 -2671.55 49.1502 9.2197031e-39
1359.64 -2679.27 49.682301 9.2197031e-39
1303.62 -2664.3198 49.545601 9.2197031e-39
1310.79 -2666.25 49.567501 9.2197031e-39
1204.46 -2630.8501 47.4842 9.2197031e-39
1219.39 -2637.6201 48.245201 9.2197031e-39
1163.4399 -2615.51 46.244999 9.2197031e-39
1094 -2600.73 47.048302 9.2197031e-39
1123.89 -2595.3999 43.667702 9.2197031e-39
1069.5699 -2582.79 44.0266 9.2197031e-39
1072.61 -2585.78 44.59795 9.2197031e-39
1066.9359 -2575.1841 42.229038 9.2197031e-39
1072.9399 -2575.6399 41.945396 9.2197031e-39
1063.1801 -2567.1099 40.383301 9.2197031e-39
769.42297 -2509.53 45.069302 9.2197031e-39
788.53406 -2506.2051 42.930199 9.2197031e-39
797.36865 -2502.8933 41.481667 9.2197031e-39
803.66498 -2501 40.5681 9.2197031e-39
792.255 -2498.78 40.755199 9.2197031e-39
709.09003 -2483.51 42.348301 9.2197031e-39
736.99194 -2487.8201 41.603401 9.2197031e-39
608.31 -2469.75 45.512501 9.2197031e-39
459.97198 -2446.72 49.4478 9.2197031e-39
466.93301 -2445 48.534302 9.2197031e-39
508.47 -2444.95 45.746799 9.2197031e-39
527.31201 -2445.49 44.6287 9.2197031e-39
497.72501 -2433.5801 43.5154 9.2197031e-39
521.315 -2439.4199 43.453899 9.2197031e-39
459.30701 -2421.6899 42.996498 9.2197031e-39
425.12299 -2412.95 43.013401 9.2197031e-39
389.927 -2400.3901 42.1059 9.2197031e-39
353.10699 -2389.8599 41.832699 9.2197031e-39
223.162 -2356.8198 41.940102 9.2197031e-39
63.651299 -2317.8701 42.490398 9.2197031e-39
58.726898 -2307.8101 40.2104 9.2197031e-39
2434.0701 -2995.1001 59.849602 9.2197031e-39
2434.48 -2984.72 57.127602 9.2197031e-39
2445.1201 -2970.8 52.805901 9.2197031e-39
2448.1899 -2961.25 50.122101 9.2197031e-39
1575.3 -2747.98 53.102001 9.2197031e-39
1526.04 -2737.22 53.6017 9.2197031e-39
1453.41 -2710.8 51.5966 9.2197031e-39
1372.4301 -2701.9399 54.709099 9.2197031e-39
1309.8199 -2674.5898 51.796398 9.2197031e-39
1178.84 -2666.54 58.456799 9.2197031e-39
1160.17 -2648.6401 55.060902 9.2197031e-39
1129.2 -2628.0698 51.791401 9.2197031e-39
653.04797 -2517.54 54.9226 9.2197031e-39
672.33099 -2512.78 52.3993 9.2197031e-39
680.58899 -2516.9302 52.9249 9.2197031e-39
481.95999 -2454.76 50.0648 9.2197031e-39
2412.8 -3005.27 63.909 9.2197031e-39
2351.79 -2994.47 65.182503 9.2197031e-39
2224.3 -2965.4199 66.163902 9.2197031e-39
2140.49 -2943.6001 66.100197 9.2197031e-39
2075.96 -2933.8899 67.892197 9.2197031e-39
1227.13 -2700.49 64.040298 9.2197031e-39
533.84497 -2531.6602 66.553299 9.2197031e-39
531.04401 -2529.8501 66.269798 9.2197031e-39
1344.04 -2791.78 79.918999 9.2197031e-39
1297.88 -2756.7 73.899902 9.2197031e-39
433.34201 -2544.45 76.586899 9.2197031e-39
1372.41 -2823.4199 86.232697 9.2197031e-39
1368.04 -2817.3301 84.945702 9.2197031e-39
301.35101 -2558.8999 89.154404 9.2197031e-39
1417.09 -2869.45 95.190697 9.2197031e-39
1398.12 -2851.49 91.797798 9.2197031e-39
1476.5601 -2930.0801 106.951 9.2197031e-39
1438.04 -2895.3301 100.507 9.2197031e-39
1507.36 -2965.71 114.138 9.2197031e-39
1634.27 -3075.78 134.22099 9.2197031e-39
1820.29 -3246.02 165.968 9.2197031e-39
1848.03 -3279.1699 172.716 9.2197031e-39
-833.23401 -2688.21 198.51199 9.2197031e-39
1999.78 -3441.05 204.58299 9.2197031e-39
1992.53 -3422.53 200.263 9.2197031e-39
-843.93298 -2720.1001 207.50301 9.2197031e-39
-845.77502 -2705.2 203.75999 9.2197031e-39
2041.6801 -3499.1399 216.858 9.2197031e-39
-837.41901 -2765.8701 218.94501 9.2197031e-39
-839.23401 -2750.3799 215.045 9.2197031e-39
-832.495 -2734.3501 210.437 9.2197031e-39
2083.8999 -3551.1299 227.52699 9.2197031e-39
-834.87598 -2796.52 226.728 9.2197031e-39
-836.93903 -2781.04 222.849 9.2197031e-39
-833.59601 -2842.96 238.69299 9.2197031e-39
-835.68402 -2827.8899 234.922 9.2197031e-39
-839.96002 -2812.74 231.276 9.2197031e-39
-832.52197 -2874.3 246.754 9.2197031e-39
-837.84998 -2859.79 243.342 9.2197031e-39
-832.61798 -2922.3101 259.21799 9.2197031e-39
-835.70001 -2906.8301 255.40601 9.2197031e-39
-839.40601 -2891.8701 251.771 9.2197031e-39
2289.02 -3765.3401 269.40701 9.2197031e-39
1045.47 -3443.1599 268.89099 9.2197031e-39
1053.0601 -3448.2 269.69 9.2197031e-39
1066.28 -3444.96 267.96649 9.2197031e-39
1079.6 -3442.53 266.44699 9.2197031e-39
1086.86 -3444.4099 266.448 9.2197031e-39
-832.01099 -2954.3701 267.495 9.2197031e-39
-834.39001 -2938.6499 263.57501 9.2197031e-39
2306.73 -3799.51 277.08801 9.2197031e-39
-832.70203 -2987.0701 276.026 9.2197031e-39
-836.31 -2971.5701 272.246 9.2197031e-39
2285.01 -3823.4199 284.746 9.2197031e-39
2292.8799 -3813.1101 281.543 9.2197031e-39
1951.49 -3750.97 288.228 9.2197031e-39
1976.03 -3754.3201 287.45801 9.2197031e-39
1990.61 -3754.48 286.526 9.2197031e-39
2014.79 -3756.52 285.439 9.2197031e-39
1039.66 -3485.3601 280.229 9.2197031e-39
-834.40503 -3036.9199 289.07599 9.2197031e-39
-830.84998 -3019.3899 284.29099 9.2197031e-39
-834.71997 -3003.9099 280.53101 9.2197031e-39
2321.3201 -3887.3 298.896 9.2197031e-39
2078.1299 -3812.26 295.673 9.2197031e-39
1820.4301 -3757.54 298.69 9.2197031e-39
1837.13 -3753.25 296.46201 9.2197031e-39
1853.6 -3757.98 296.58899 9.2197031e-39
1872.16 -3755.7 294.75601 9.2197031e-39
1885.25 -3755.3201 293.78299 9.2197031e-39
1904.51 -3753.4199 292.004 9.2197031e-39
1918.88 -3754.29 291.26999 9.2197031e-39
1942.58 -3757.3701 290.48499 9.2197031e-39
1037.15 -3538.1499 294.095 9.2197031e-39
-833.44 -3070.0901 297.61899 9.2197031e-39
-830.26703 -3052.4099 292.81799 9.2197031e-39
1689.1801 -3765.6699 309.569 9.2197031e-39
1698.3101 -3761.1299 307.78 9.2197031e-39
1729.45 -3762.6599 306.09799 9.2197031e-39
1748.03 -3762.73 304.87299 9.2197031e-39
1811.4 -3762.98 300.70499 9.2197031e-39
1667.45 -3758.9199 309.26999 9.2197031e-39
1714.14 -3757.3899 305.75201 9.2197031e-39
1757.1 -3757.75 302.97601 9.2197031e-39
1773.0601 -3753.3601 300.771 9.2197031e-39
1788.65 -3757.99 300.92999 9.2197031e-39
-826.20898 -3118.5601 309.71301 9.2197031e-39
-830.883 -3103.0901 306.01199 9.2197031e-39
-827.15302 -3084.96 301.05701 9.2197031e-39
1659.29 -3764.95 311.37799 9.2197031e-39
-830.16302 -3154.3701 319.26901 9.2197031e-39
-828.60999 -3136.54 314.53799 9.2197031e-39
1035.6801 -3653.73 324.185 9.2197031e-39
-830.59399 -3189.45 328.401 9.2197031e-39
-824.74701 -3169.75 322.89899 9.2197031e-39
1704.1 -3877.0601 337.47601 9.2197031e-39
1640.6801 -3839 331.83701 9.2197031e-39
-825.724 -3222.8999 336.75601 9.2197031e-39
-831.24402 -3207.4199 333.108 9.2197031e-39
2520.3999 -4109.1299 343.155 9.2197031e-39
1642.1801 -3901.0701 347.84201 9.2197031e-39
1640 -3872.4099 340.55301 9.2197031e-39
-672.33301 -3312.5 349.75699 9.2197031e-39
-829.26801 -3260.29 346.69501 9.2197031e-39
-826.89203 -3241.3601 341.62299 9.2197031e-39
1738.63 -3963.5 357.599 9.2197031e-39
1640.01 -3933.8101 356.483 9.2197031e-39
1034.24 -3752.9199 350.01999 9.2197031e-39
-670.133 -3346.8 358.51001 9.2197031e-39
-670.37 -3329.02 353.91199 9.2197031e-39
-823.89398 -3294.4099 355.19 9.2197031e-39
-830.89801 -3279.3301 351.74399 9.2197031e-39
1738.1 -3999.3101 366.927 9.2197031e-39
1626 -3969.8401 366.76901 9.2197031e-39
1640.8199 -3961.77 363.686 9.2197031e-39
1285.1801 -3893.8701 369.828 9.2197031e-39
1257.2 -3885.79 369.60001 9.2197031e-39
1243.17 -3870.8999 366.67401 9.2197031e-39
1270.13 -3876.4099 366.302 9.2197031e-39
-666.11298 -3362.45 362.30301 9.2197031e-39
-788.95599 -3352.02 367.80399 9.2197031e-39
-827.65302 -3333.2 365.50601 9.2197031e-39
-824.20898 -3313.1699 360.077 9.2197031e-39
1197.79 -3900.48 377.38199 9.2197031e-39
1302.47 -3901.22 370.57999 9.2197031e-39
1181.55 -3892.95 376.51401 9.2197031e-39
1206.96 -3891.95 374.556 9.2197031e-39
1221.67 -3890.6399 373.23099 9.2197031e-39
1168.59 -3879.27 373.828 9.2197031e-39
-827.50598 -3352.1399 370.41101 9.2197031e-39
2709.05 -4337.7803 389.884 9.2197031e-39
1645.21 -4039.72 383.62 9.2197031e-39
1242.97 -3940.95 384.86401 9.2197031e-39
-707.07599 -3440.73 385.35199 9.2197031e-39
-690.32703 -3449.8701 386.60501 9.2197031e-39
-737.13098 -3419.45 381.83899 9.2197031e-39
2594.1001 -4341.02 398.40399 9.2197031e-39
2654.0601 -4342.9902 394.91 9.2197031e-39
2562.1499 -4331.48 398.06201 9.2197031e-39
2623.75 -4336.3896 395.22198 9.2197031e-39
2683.26 -4336.8999 391.37799 9.2197031e-39
1648.35 -4089.8301 396.41101 9.2197031e-39
-691.16199 -3469.79 391.82999 9.2197031e-39
1647.39 -4119.1001 404.07001 9.2197031e-39
1023.3 -3961.9199 404.98099 9.2197031e-39
-571.96997 -3568.22 409.40701 9.2197031e-39
-705.651 -3517.6699 405.22101 9.2197031e-39
-717.18903 -3504.51 402.577 9.2197031e-39
-821.01703 -3484.8799 404.42099 9.2197031e-39
1649.76 -4171.3101 417.45901 9.2197031e-39
1036.42 -3991.3601 411.745 9.2197031e-39
-566.23999 -3584.55 413.26001 9.2197031e-39
-691.57501 -3568.6899 417.51999 9.2197031e-39
-656.56201 -3566.3899 414.582 9.2197031e-39
-623.79602 -3564.0901 411.797 9.2197031e-39
-595.58801 -3565.2 410.202 9.2197031e-39
-683.35602 -3543.6001 410.45999 9.2197031e-39
-705.953 -3537.4299 410.36899 9.2197031e-39
1651.4301 -4209.79 427.33301 9.2197031e-39
1652.48 -4263.21 441.12701 9.2197031e-39
1652.77 -4301.9297 451.15399 9.2197031e-39
1651.74 -4354.73 464.92401 9.2197031e-39
-765.828 -3749.75 469.46399 9.2197031e-39
1653.39 -4400.9697 476.811 9.2197031e-39
-788.72699 -3813.6699 487.57999 9.2197031e-39
-792.75098 -3793.7 482.66699 9.2197031e-39
1646.42 -4488.5303 499.99701 9.2197031e-39
1653.26 -4461.3701 492.492 9.2197031e-39
-789.672 -3839.3999 494.319 9.2197031e-39
-783.18201 -3883.5801 505.349 9.2197031e-39
-791.34698 -3864.28 500.88901 9.2197031e-39
-785.83801 -3909.8601 512.34601 9.2197031e-39
-785.93597 -3961.3501 525.71399 9.2197031e-39
-789.16803 -3939.1899 520.17999 9.2197031e-39
1632.15 -4635.29 539.03198 9.2197031e-39
-783.96503 -4012.6499 538.89502 9.2197031e-39
-788.47998 -3991 533.57703 9.2197031e-39
1578.2 -4652.52 547.10999 9.2197031e-39
1597.3199 -4657.2197 547.04999 9.2197031e-39
1619.8199 -4652.29 544.26801 9.2197031e-39
1661.91 -4652.2197 541.43799 9.2197031e-39
1681.28 -4656.2002 541.17603 9.2197031e-39
1509.1 -4636.3799 547.53699 9.2197031e-39
-781.34601 -4038.6899 545.47699 9.2197031e-39
1537.28 -4653.8896 550.19702 9.2197031e-39
1556.55 -4659.8701 550.461 9.2197031e-39
-782.83698 -4066.3201 552.745 9.2197031e-39
-599.758 -4172.0601 567.95099 9.2197031e-39
-568.10303 -4168.8604 565.00598 9.2197031e-39
-776.73999 -4117.1001 565.51398 9.2197031e-39
-785.20697 -4097.8701 561.09198 9.2197031e-39
1038.63 -4627.1201 576.56897 9.2197031e-39
-565.19 -4194.04 571.34601 9.2197031e-39
-669.047 -4185.9902 576.19598 9.2197031e-39
-627.62 -4173.7598 570.25299 9.2197031e-39
-778.99597 -4149.5898 574.09698 9.2197031e-39
984.42401 -4661.8701 589.20599 9.2197031e-39
1001.5 -4665.5703 589.026 9.2197031e-39
1022.6 -4644.04 582.02899 9.2197031e-39
-779.75299 -4209.8398 589.78101 9.2197031e-39
-708.86499 -4198.77 582.17102 9.2197031e-39
-731.099 -4189.77 581.32202 9.2197031e-39
-780.52197 -4179.04 581.83899 9.2197031e-39
884.94 -4661.8101 595.83698 9.2197031e-39
906.74902 -4660.7197 594.09698 9.2197031e-39
923.75702 -4665.0098 594.07501 9.2197031e-39
945.58698 -4661.6201 591.737 9.2197031e-39
962.61298 -4663.6797 591.13501 9.2197031e-39
829.117 -4656.9297 598.302 9.2197031e-39
846.12402 -4659.8896 597.93201 9.2197031e-39
867.92102 -4659.1499 596.28497 9.2197031e-39
791.02802 -4644.4102 597.59802 9.2197031e-39
807.03497 -4662.1299 601.12598 9.2197031e-39
751.02399 -4657.27 603.60699 9.2197031e-39
768.59003 -4654.0703 601.60303 9.2197031e-39
713.73602 -4813.7202 646.69501 9.2197031e-39
696.70203 -4798.2002 643.80499 9.2197031e-39
-535.76001 -4492.7803 646.89899 9.2197031e-39
-551.55103 -4479.3101 644.45801 9.2197031e-39
-757.737 -4446.4697 649.71198 9.2197031e-39
-160.187 -4634.21 658.50299 9.2197031e-39
-707.46802 -4491.7998 658.11603 9.2197031e-39
-653.38098 -4498.02 656.11499 9.2197031e-39
-622.08398 -4497.46 653.87799 9.2197031e-39
-591.90002 -4493.02 650.71002 9.2197031e-39
-673.51898 -4488.9199 655.09998 9.2197031e-39
-740.276 -4459.3101 651.87598 9.2197031e-39
-213.842 -4642.6899 664.28998 9.2197031e-39
-183.864 -4636.4102 660.65698 9.2197031e-39
-735.80603 -4491.8799 660.02899 9.2197031e-39
-161.98801 -4689.46 672.961 9.2197031e-39
-349.67999 -4660.0098 677.85999 9.2197031e-39
-328.03799 -4664.4502 677.565 9.2197031e-39
-274.82401 -4661.7998 673.323 9.2197031e-39
-249.03799 -4664.71 672.35602 9.2197031e-39
-296.302 -4657.8501 673.73199 9.2197031e-39
-156.14101 -4723.3896 681.37402 9.2197031e-39
-487.85699 -4661.3701 687.44299 9.2197031e-39
-461.021 -4665.7197 686.78003 9.2197031e-39
-434.87799 -4664.6299 684.75098 9.2197031e-39
-403.54001 -4661.02 681.71802 9.2197031e-39
-381.23901 -4665.1201 681.29303 9.2197031e-39
-577.83502 -4627.73 684.72803 9.2197031e-39
-628.99701 -4660.98 696.77301 9.2197031e-39
-515.85699 -4664.3101 690.07599 9.2197031e-39
-569.42603 -4659.2998 692.35699 9.2197031e-39
-542.26599 -4658.5601 690.349 9.2197031e-39
-315.556 -5109.1299 792.12 9.2197031e-39
-181.8 -5194.9102 805.44202 9.2197031e-39
-206.724 -5180.4399 803.35199 9.2197031e-39
-287.121 -5172.0801 806.55298 9.2197031e-39
-262.57501 -5176.5498 806.07397 9.2197031e-39
-232.334 -5179.1099 804.71698 9.2197031e-39
-321.146 -5176.8301 810.05902 9.2197031e-39
-184.367 -5264.7002 823.72101 9.2197031e-39
-184.17 -5343.6899 844.20599 9.2197031e-39
-185.85201 -5417.5298 863.47803 9.2197031e-39
-214.517 -6173.6699 1061.6 9.2197031e-39
-270.57501 -6222.8101 1078.1 9.2197031e-39
-364.02899 -6179.2798 1073.05 9.2197031e-39
-310.50299 -6241.3101 1085.5601 9.2197031e-39
-361.66299 -6270.0098 1096.4301 9.2197031e-39
-193.11501 -6346.6299 1105.05 9.2197031e-39
-255.47099 -6414.73 1126.89 9.2197031e-39
195.985 -7696.77 1429.4 9.2197031e-39
239.049 -7695.2798 1426.13 9.2197031e-39
285.20001 -7746.5698 1436.36 9.2197031e-39
142.623 -7700.1699 1433.85 9.2197031e-39
93.923698 -7734.27 1445.95 9.2197031e-39
-49.359001 -7693.48 1444.9301 9.2197031e-39
-142.259 -7671.5498 1445.45 9.2197031e-39
-90.306198 -7679.4102 1444.02 9.2197031e-39
-185.649 -7669.0601 1447.7 9.2197031e-39
-237.312 -7659.3701 1448.64 9.2197031e-39
38.201401 -7747.1699 1453.02 9.2197031e-39
-4.2722602 -7739.4502 1453.85 9.2197031e-39
-379.41501 -7655.5698 1457.15 9.2197031e-39
-333.70599 -7651.1699 1452.96 9.2197031e-39
-280.98801 -7657.0601 1450.96 9.2197031e-39
-431.216 -7645.02 1457.87 9.2197031e-39
-475.647 -7643 1460.3199 9.2197031e-39
-528.68298 -7636.2002 1462.1 9.2197031e-39
308.81201 -7912.3799 1477.8101 9.2197031e-39
