# .PCD v0.7 - Point Cloud Data file format
VERSION 0.7
FIELDS x y z rgb
SIZE 4 4 4 4
TYPE F F F F
COUNT 1 1 1 1
WIDTH 347
HEIGHT 1
VIEWPOINT 0 0 0 1 0 0 0
POINTS 347
DATA ascii
2417.3401 -2981.5 35.862202 9.2197031e-39
2446.99 -2976.5 32.352402 9.2197031e-39
2294.1101 -2957.01 38.807201 9.2197031e-39
1063.51 -2590.98 36.9575 9.2197031e-39
795.87549 -2522.4951 39.414948 9.2197031e-39
111.474 -2325.1001 39.975899 9.2197031e-39
93.9132 -2313.1001 38.206001 9.2197031e-39
74.572601 -2300.26 36.354401 9.2197031e-39
63.093102 -2289.26 34.385101 9.2197031e-39
54.623699 -2278.8901 32.352402 9.2197031e-39
2109.8899 -2944.02 49.284302 9.2197031e-39
2201.8899 -2940.21 41.4039 9.2197031e-39
2104.8101 -2931.1799 46.362701 9.2197031e-39
2142.3501 -2932.5 43.8871 9.2197031e-39
1294.6 -2707.72 49.652901 9.2197031e-39
1257.14 -2693.3101 48.756699 9.2197031e-39
1201.78 -2672.1401 47.464199 9.2197031e-39
1219.97 -2678.29 47.681301 9.2197031e-39
1169.53 -2658.3501 46.335999 9.2197031e-39
1110.22 -2631.5601 43.8922 9.2197031e-39
1127.83 -2638.8999 44.459999 9.2197031e-39
1041.13 -2627.8901 48.129902 9.2197031e-39
1058.22 -2620.6899 44.996498 9.2197031e-39
1091.87 -2623.45 43.181599 9.2197031e-39
1025.1899 -2615.9102 46.243801 9.2197031e-39
1053.2567 -2612.6201 43.293064 9.2197031e-39
1046.38 -2605.1301 41.882301 9.2197031e-39
1050.53 -2605.1274 41.570301 9.2197031e-39
762.22198 -2544.4199 47.579899 9.2197031e-39
713.82098 -2534.6499 48.697399 9.2197031e-39
728.74597 -2532.8999 47.127602 9.2197031e-39
771.617 -2531.78 43.6241 9.2197031e-39
780.59302 -2530.6401 42.658199 9.2197031e-39
776.63702 -2527.97 42.2672 9.2197031e-39
785.95599 -2525.8901 41.033276 9.2197031e-39
795.61298 -2527.5801 40.742599 9.2197031e-39
749.427 -2514.6802 40.8894 9.2197031e-39
768.17603 -2518.0601 40.352699 9.2197031e-39
667.44897 -2501.4302 43.629799 9.2197031e-39
714.84399 -2509.1499 42.0602 9.2197031e-39
624.45203 -2490.8599 44.135201 9.2197031e-39
669.68903 -2499.48 42.9603 9.2197031e-39
466.672 -2464.5801 49.209999 9.2197031e-39
444.534 -2457.0698 48.939701 9.2197031e-39
414.32901 -2443.3501 47.6758 9.2197031e-39
420.51901 -2448.8501 48.628101 9.2197031e-39
419.01099 -2439.73 46.393398 9.2197031e-39
434.517 -2438.27 44.8549 9.2197031e-39
441.194 -2435.28 43.585999 9.2197031e-39
417.56299 -2426.01 42.972801 9.2197031e-39
344.35901 -2400.23 41.832699 9.2197031e-39
361.82901 -2409.25 42.8419 9.2197031e-39
196.64101 -2359.95 42.5522 9.2197031e-39
127.238 -2336.3101 41.677502 9.2197031e-39
2084.03 -2968.0701 57.410801 9.2197031e-39
2082.0701 -2956.27 54.522999 9.2197031e-39
2095.05 -2949.9199 51.913399 9.2197031e-39
1576.26 -2815.3101 56.2029 9.2197031e-39
1541.85 -2806.52 56.522202 9.2197031e-39
1454.89 -2773.1599 54.464298 9.2197031e-39
1376.71 -2742.1602 52.3535 9.2197031e-39
1164.12 -2705.3101 58.819302 9.2197031e-39
1143.75 -2687.6699 55.810501 9.2197031e-39
1127.98 -2673.8301 53.432899 9.2197031e-39
1113.63 -2661.3999 51.3116 9.2197031e-39
1052.21 -2640.8198 50.625999 9.2197031e-39
594.474 -2543.5801 59.946201 9.2197031e-39
644.08801 -2537.3101 54.611301 9.2197031e-39
2127.1599 -3019.22 67.333099 9.2197031e-39
2124.77 -3006.55 64.253799 9.2197031e-39
2088.6699 -2981.01 60.391399 9.2197031e-39
1240.49 -2769.24 69.536499 9.2197031e-39
1214.75 -2753.6201 67.450203 9.2197031e-39
1205.78 -2739.3198 64.444702 9.2197031e-39
571.42401 -2541.21 61.064999 9.2197031e-39
1280.88 -2814.1599 78.0625 9.2197031e-39
1237.1 -2775.02 71.277298 9.2197031e-39
432.58801 -2556.7 75.463699 9.2197031e-39
476.134 -2550.8501 70.692101 9.2197031e-39
1309.65 -2847.8301 84.566902 9.2197031e-39
1288.45 -2825.23 80.342102 9.2197031e-39
270.772 -2569.73 90.953499 9.2197031e-39
-824.22803 -2674.21 199.966 9.2197031e-39
-822.72803 -2659.1099 195.968 9.2197031e-39
-823.841 -2704.25 207.66299 9.2197031e-39
-824.59802 -2689.27 203.866 9.2197031e-39
-820.75403 -2749.21 218.998 9.2197031e-39
-820.92999 -2734.1099 215.12601 9.2197031e-39
-831.85199 -2720.1802 212.36099 9.2197031e-39
-823.92297 -2780.02 227.161 9.2197031e-39
-826.35303 -2765.1101 223.508 9.2197031e-39
-824.651 -2826.1001 239.07001 9.2197031e-39
-829.45801 -2811.49 235.67 9.2197031e-39
-821.35999 -2794.9099 230.799 9.2197031e-39
2308.72 -3774.8 248.077 9.2197031e-39
2319.5901 -3763.27 244.293 9.2197031e-39
1068.9399 -3416.0601 248.791 9.2197031e-39
1076.6801 -3414.03 247.687 9.2197031e-39
1084.22 -3410.97 246.336 9.2197031e-39
1093.14 -3415.51 246.83299 9.2197031e-39
-818.56201 -2855.8899 246.274 9.2197031e-39
-821.67297 -2841.01 242.67999 9.2197031e-39
2271.1399 -3804.76 258.60101 9.2197031e-39
2277.21 -3788.8 254.04201 9.2197031e-39
2294.0801 -3782.8999 251.257 9.2197031e-39
1989.03 -3725.77 259.444 9.2197031e-39
2010.8199 -3729.4199 258.74701 9.2197031e-39
1045.8101 -3423.7 252.49001 9.2197031e-39
1062.47 -3426.6799 252.008 9.2197031e-39
1052.84 -3416.0901 250.005 9.2197031e-39
-825.90399 -2904.0601 259.216 9.2197031e-39
-819.72198 -2887.1399 254.401 9.2197031e-39
-823.11401 -2872.25 250.82401 9.2197031e-39
2279.8999 -3835.1499 265.763 9.2197031e-39
2072.3301 -3775.79 266.061 9.2197031e-39
1905.99 -3732.55 267.41699 9.2197031e-39
1922.24 -3731.27 265.86801 9.2197031e-39
1939.8199 -3731.3201 264.561 9.2197031e-39
1884.83 -3727.47 267.69699 9.2197031e-39
1955.54 -3728.8999 262.76199 9.2197031e-39
1970.63 -3725.5701 260.772 9.2197031e-39
1045.83 -3490.05 269.55701 9.2197031e-39
-826.14502 -2935.6499 267.35999 9.2197031e-39
-822.22498 -2918.98 262.77899 9.2197031e-39
1743.05 -3730.49 279.108 9.2197031e-39
1790.75 -3732.3999 276.021 9.2197031e-39
1805.4301 -3730.8201 274.51401 9.2197031e-39
1875.45 -3736.8899 270.823 9.2197031e-39
1757.01 -3728.6001 277.57501 9.2197031e-39
1773.27 -3729.79 276.66199 9.2197031e-39
1820.73 -3729.8701 273.12201 9.2197031e-39
1836.6801 -3729.54 271.84201 9.2197031e-39
1852.0699 -3728.25 270.35501 9.2197031e-39
-823.45599 -2982.8 279.28699 9.2197031e-39
-827.70801 -2967.8501 275.76099 9.2197031e-39
-824.112 -2951.04 271.16599 9.2197031e-39
1720.0601 -3741.24 283.59799 9.2197031e-39
1735.13 -3741.24 282.46899 9.2197031e-39
1657.3101 -3734.5601 286.586 9.2197031e-39
1670.03 -3731.8799 284.944 9.2197031e-39
1685.9 -3734.0801 284.319 9.2197031e-39
1702.39 -3736.9299 283.815 9.2197031e-39
1129.55 -3560.3101 281.35001 9.2197031e-39
1044.11 -3551.6201 285.52399 9.2197031e-39
-823.146 -3014.95 287.534 9.2197031e-39
-827.68701 -3000 284.02802 9.2197031e-39
2403 -3978.28 293.34601 9.2197031e-39
-817.24597 -3062.1499 299.23401 9.2197031e-39
-820.31201 -3046.6799 295.48499 9.2197031e-39
-827.04303 -3032.29 292.28799 9.2197031e-39
1648.75 -3819.48 309.07199 9.2197031e-39
1043.6 -3635.4099 307.116 9.2197031e-39
-824.80701 -3097.6001 308.91901 9.2197031e-39
-821.59198 -3079.97 304.14301 9.2197031e-39
1646.27 -3841.6899 314.97198 9.2197031e-39
1674.3 -3838.29 311.996 9.2197031e-39
-821.32202 -3129.98 316.98801 9.2197031e-39
-819.38898 -3112.54 312.35599 9.2197031e-39
1648.08 -3872.6001 322.78699 9.2197031e-39
1041.87 -3722.1399 329.55499 9.2197031e-39
-814.91498 -3178.6899 329.03601 9.2197031e-39
-819.06799 -3163.1001 325.33899 9.2197031e-39
-818.41199 -3145.8701 320.85699 9.2197031e-39
1649.75 -3933.8899 338.42999 9.2197031e-39
1747.28 -3937.49 332.039 9.2197031e-39
1649.39 -3903.6299 330.67099 9.2197031e-39
-819.966 -3215.1699 338.79999 9.2197031e-39
-817.07703 -3196.7 333.83301 9.2197031e-39
1817.04 -4027.1201 349.86301 9.2197031e-39
1637.26 -3939.72 340.866 9.2197031e-39
1302.71 -3869.22 347.82501 9.2197031e-39
1274.6 -3858.8799 347.27399 9.2197031e-39
1284.15 -3847.6499 343.66901 9.2197031e-39
1254.9 -3830.3601 341.41501 9.2197031e-39
-660.33899 -3300.76 348.84201 9.2197031e-39
-658.52399 -3282.9299 344.12 9.2197031e-39
-816.01398 -3248.6799 347.12299 9.2197031e-39
-814.409 -3230.45 342.31299 9.2197031e-39
2734.3799 -4333.6201 359.89499 9.2197031e-39
1648.99 -3994.72 354.133 9.2197031e-39
1241.13 -3876.05 354.20099 9.2197031e-39
1200.91 -3862.8501 353.82199 9.2197031e-39
1213 -3861.6599 352.60999 9.2197031e-39
1226.99 -3868.9199 353.42801 9.2197031e-39
1250.84 -3864.1101 350.39999 9.2197031e-39
-653.703 -3331.8201 356.33499 9.2197031e-39
-661.07098 -3318.24 353.39499 9.2197031e-39
-820.44598 -3286.1799 357.10101 9.2197031e-39
-818.33301 -3267.3799 352.10699 9.2197031e-39
1652.13 -4034.1001 364.02802 9.2197031e-39
1043.97 -3871.71 367.87299 9.2197031e-39
-696.922 -3371.45 369.772 9.2197031e-39
-815.96997 -3320.4199 365.57401 9.2197031e-39
-774.56598 -3319.6399 362.267 9.2197031e-39
-814.237 -3301.5 360.577 9.2197031e-39
2743.05 -4405.3604 377.69901 9.2197031e-39
2746.28 -4376.7998 370.11099 9.2197031e-39
1654.2 -4072.75 373.81299 9.2197031e-39
2750.3899 -4445.4697 387.46799 9.2197031e-39
1656.04 -4112.4102 383.879 9.2197031e-39
-683.625 -3437.1699 385.67999 9.2197031e-39
-704.46698 -3411.73 380.698 9.2197031e-39
-682.46802 -3418.1201 380.69299 9.2197031e-39
2724.6299 -4451.1201 390.854 9.2197031e-39
1657.62 -4153.1104 394.229 9.2197031e-39
1375.35 -4076.0901 395.591 9.2197031e-39
-697.99402 -3482.97 398.539 9.2197031e-39
-709.28302 -3470.45 396.164 9.2197031e-39
1658.53 -4193.9297 404.66299 9.2197031e-39
-560.61499 -3549.1399 405.254 9.2197031e-39
-660.17603 -3537.1201 409.63199 9.2197031e-39
-630.23602 -3537.46 407.47299 9.2197031e-39
-597.96399 -3535.76 404.61401 9.2197031e-39
-570.73901 -3536.8501 402.85199 9.2197031e-39
-678.48199 -3509.7 403.95099 9.2197031e-39
-687.45203 -3495.8799 401.06799 9.2197031e-39
-820.44397 -3454.46 400.39099 9.2197031e-39
1658.75 -4234.8799 415.17899 9.2197031e-39
1044.8101 -4039.73 411.03101 9.2197031e-39
-586.57397 -3586.46 416.802 9.2197031e-39
-693.573 -3538.4199 412.47101 9.2197031e-39
1658.6801 -4276.8501 425.98001 9.2197031e-39
1661.23 -4327.0801 438.70999 9.2197031e-39
1662.9301 -4377.4697 451.54401 9.2197031e-39
1043.16 -4215.54 456.37799 9.2197031e-39
1662.02 -4423.4399 463.439 9.2197031e-39
1657.5699 -4462.21 473.74399 9.2197031e-39
-780.43903 -3766.23 477.58801 9.2197031e-39
-785.33502 -3746.97 473.00101 9.2197031e-39
-782.42401 -3790.72 484.03601 9.2197031e-39
-779.23602 -3835.3601 495.27899 9.2197031e-39
-784.88 -3815.9299 490.70499 9.2197031e-39
1688.5699 -4599.2002 506.65701 9.2197031e-39
-782.62701 -3886.3501 508.64999 9.2197031e-39
-781.09497 -3860.78 501.95901 9.2197031e-39
1680.3101 -4633.7402 516.164 9.2197031e-39
1635.8199 -4625.1201 517.28198 9.2197031e-39
1652.87 -4614.77 513.34302 9.2197031e-39
-783.06598 -3911.4299 515.13599 9.2197031e-39
1596.58 -4630.52 521.61401 9.2197031e-39
1618.64 -4635.3301 521.19702 9.2197031e-39
1575.23 -4627.3604 522.40399 9.2197031e-39
1551.75 -4616.5303 521.37799 9.2197031e-39
-778.479 -3958.21 526.82397 9.2197031e-39
-779.40698 -3933.55 520.54999 9.2197031e-39
-775.68201 -4007.8201 539.37598 9.2197031e-39
-777.98199 -3983.6001 533.31799 9.2197031e-39
-776.005 -4034.7 546.315 9.2197031e-39
1049.85 -4586.8799 551.40002 9.2197031e-39
-574.48401 -4143.7402 559.24799 9.2197031e-39
-547.22498 -4143.0703 557.03198 9.2197031e-39
-774.14502 -4087.52 559.76099 9.2197031e-39
-774.521 -4060.3999 552.815 9.2197031e-39
958.20001 -4630.9902 569.62 9.2197031e-39
977.08502 -4632.9399 568.70599 9.2197031e-39
995.87701 -4630.8604 566.76099 9.2197031e-39
1014.79 -4632.4902 565.763 9.2197031e-39
1033 -4619.4399 561.039 9.2197031e-39
-628.04102 -4142.6499 562.98499 9.2197031e-39
-605.89697 -4148.29 562.776 9.2197031e-39
-771.26801 -4112.7598 566.039 9.2197031e-39
863.66199 -4639.1602 578.81299 9.2197031e-39
882.59497 -4639.98 577.60303 9.2197031e-39
901.64502 -4631.9199 574.10199 9.2197031e-39
920.50598 -4632.4199 572.815 9.2197031e-39
939.367 -4632.75 571.48602 9.2197031e-39
807.573 -4624.1499 579.15997 9.2197031e-39
789.03302 -4618.8398 579.185 9.2197031e-39
-737.03302 -4165.7598 577.10602 9.2197031e-39
-703.41803 -4161.5303 573.49597 9.2197031e-39
-671.38501 -4158.2402 570.24701 9.2197031e-39
-777.97998 -4147.4502 575.46503 9.2197031e-39
825.81201 -4637.04 581.10797 9.2197031e-39
844.69501 -4639.1499 580.23297 9.2197031e-39
770.27802 -4617.2402 580.17798 9.2197031e-39
-775.06897 -4173.6001 581.974 9.2197031e-39
746.59998 -4673.29 596.37402 9.2197031e-39
716.53101 -4785.8896 627.59302 9.2197031e-39
695.66901 -4789.3999 630.06201 9.2197031e-39
-545.68298 -4461.8203 638.909 9.2197031e-39
-586.02002 -4442.7402 637.026 9.2197031e-39
-561.40302 -4446.6299 636.18201 9.2197031e-39
-729.52899 -4407.7998 638.80402 9.2197031e-39
-743.97302 -4390.48 635.43103 9.2197031e-39
-158.23599 -4610.9297 648.203 9.2197031e-39
-542.039 -4493.1699 646.70099 9.2197031e-39
-680.755 -4453.9697 647.02197 9.2197031e-39
-625.33502 -4456.6899 643.56299 9.2197031e-39
-646.51202 -4447.6201 642.81897 9.2197031e-39
-154.78 -4650.5303 658.13098 9.2197031e-39
-217.567 -4631.3999 657.91803 9.2197031e-39
-185.252 -4616.6396 651.70001 9.2197031e-39
-741.04303 -4455.0898 651.83301 9.2197031e-39
-712.71899 -4456.9297 650.18103 9.2197031e-39
-141.603 -4672.0898 662.68799 9.2197031e-39
-345.77499 -4635.3896 668.56201 9.2197031e-39
-321.68701 -4638.1396 667.46198 9.2197031e-39
-294.246 -4634.7803 664.54199 9.2197031e-39
-243.164 -4633.0801 660.27197 9.2197031e-39
-266.01099 -4629.4502 661.05103 9.2197031e-39
-504.448 -4632.8604 679.81403 9.2197031e-39
-479.905 -4637.2197 679.09497 9.2197031e-39
-451.677 -4635.6699 676.578 9.2197031e-39
-427.26599 -4639.4902 675.72998 9.2197031e-39
-398.245 -4635.7002 672.57703 9.2197031e-39
-373.99399 -4638.98 671.60199 9.2197031e-39
-569.19501 -4605.6602 677.67401 9.2197031e-39
-563.17999 -4636.7998 685.23401 9.2197031e-39
-533.45898 -4634.6001 682.43799 9.2197031e-39
-178.716 -4796.9302 697.58398 9.2197031e-39
-622.521 -4639.3799 690.349 9.2197031e-39
-179.799 -5148.6099 788.13202 9.2197031e-39
-270.11499 -5161.3301 798.177 9.2197031e-39
-296.742 -5156.7598 799.00098 9.2197031e-39
-238.00101 -5153.2798 793.69897 9.2197031e-39
-209.60201 -5152.8701 791.46198 9.2197031e-39
-174.911 -5203.8799 801.98199 9.2197031e-39
-323.80399 -5152.8198 800.01703 9.2197031e-39
-174.532 -5272.7202 819.66199 9.2197031e-39
-169.467 -5332.7798 834.73199 9.2197031e-39
-165.82201 -5399.2998 851.56897 9.2197031e-39
-253.437 -6215.3101 1068.05 9.2197031e-39
-347.40799 -6166.6899 1062.59 9.2197031e-39
-301.55301 -6249.48 1080.45 9.2197031e-39
-244.52 -6304.1899 1090.24 9.2197031e-39
-353.19501 -6291.3301 1095.09 9.2197031e-39
208.35899 -7677.1699 1409.45 9.2197031e-39
255.981 -7674.3398 1405.15 9.2197031e-39
295.64999 -7735.3901 1417.88 9.2197031e-39
162.047 -7670.0298 1411.09 9.2197031e-39
108.981 -7705.4502 1424.1801 9.2197031e-39
-121.468 -7653.0498 1427.99 9.2197031e-39
-73.209 -7652.1699 1424.14 9.2197031e-39
-167.40199 -7642.1699 1428.64 9.2197031e-39
58.562599 -7720.3301 1431.79 9.2197031e-39
10.4955 -7719.52 1435.1899 9.2197031e-39
-35.867401 -7708.79 1435.91 9.2197031e-39
-215.347 -7640.3398 1431.76 9.2197031e-39
-263.57901 -7639.02 1435.04 9.2197031e-39
-357.90799 -7625.7202 1438.6899 9.2197031e-39
-309.60699 -7627.8799 1435.63 9.2197031e-39
-407.996 -7629.6699 1443.47 9.2197031e-39
-502.43399 -7613.8701 1446.49 9.2197031e-39
-454.211 -7618.25 1443.99 9.2197031e-39
-550.42902 -7608.1299 1448.61 9.2197031e-39
325.31201 -7894.1699 1456.5 9.2197031e-39
-598.16699 -7601.0498 1450.37 9.2197031e-39
