# .PCD v0.7 - Point Cloud Data file format
VERSION 0.7
FIELDS x y z rgb
SIZE 4 4 4 4
TYPE F F F F
COUNT 1 1 1 1
WIDTH 344
HEIGHT 1
VIEWPOINT 0 0 0 1 0 0 0
POINTS 344
DATA ascii
4140.5298 -3163.99 39.715401 9.2197031e-39
4110.4199 -3129.75 32.1749 9.2197031e-39
797.07599 -2541.1001 39.782799 9.2197031e-39
787.06598 -2539.9302 39.966 9.2197031e-39
73.969002 -2400.71 38.3009 9.2197031e-39
60.339901 -2391.0801 36.4352 9.2197031e-39
46.880299 -2380.8599 34.403198 9.2197031e-39
68.859802 -2377.3599 32.401199 9.2197031e-39
4148.0098 -3192.8799 46.956501 9.2197031e-39
1297.12 -2670.8501 49.410301 9.2197031e-39
1266.84 -2666 49.618198 9.2197031e-39
1275.38 -2666.1401 49.237801 9.2197031e-39
1301.04 -2668.9302 48.7132 9.2197031e-39
1191.52 -2641.72 46.9207 9.2197031e-39
1153.89 -2630.6299 45.847301 9.2197031e-39
1164.79 -2633.1099 45.964901 9.2197031e-39
1096.97 -2626.01 47.426201 9.2197031e-39
1074.8101 -2611.5601 44.70715 9.2197031e-39
1068.8199 -2604.8799 43.241501 9.2197031e-39
1071.905 -2606.4949 43.514549 9.2197031e-39
1056.5 -2596.1602 41.548401 9.2197031e-39
1066.116 -2596.9438 41.283699 9.2197031e-39
776.75098 -2566.5698 47.4893 9.2197031e-39
793.677 -2561.2532 45.257534 9.2197031e-39
782.021 -2554.74 44.113701 9.2197031e-39
799.76501 -2551.8799 42.4902 9.2197031e-39
804.61603 -2550.27 41.828201 9.2197031e-39
796.51251 -2545.395 40.941174 9.2197031e-39
803.66534 -2546.4768 40.874866 9.2197031e-39
665.24799 -2530.8101 43.542099 9.2197031e-39
718.14502 -2534.3501 41.878399 9.2197031e-39
722.125 -2536.3398 42.206902 9.2197031e-39
763.08002 -2538.4302 40.747898 9.2197031e-39
555.59399 -2520.75 46.277401 9.2197031e-39
600.41199 -2525.77 45.397598 9.2197031e-39
578.047 -2512.5601 43.0173 9.2197031e-39
586.828 -2516.29 43.569199 9.2197031e-39
593.65698 -2519.6099 44.1087 9.2197031e-39
537.41602 -2506.1802 43.331402 9.2197031e-39
462.39099 -2491.8101 43.228901 9.2197031e-39
492.89899 -2498.5801 43.5154 9.2197031e-39
412.10901 -2482.1602 43.155499 9.2197031e-39
369.87701 -2472.8101 42.765202 9.2197031e-39
307.95499 -2460 42.433102 9.2197031e-39
164.914 -2435.5 43.001598 9.2197031e-39
109.399 -2420.73 41.835602 9.2197031e-39
88.635902 -2410.6001 40.185902 9.2197031e-39
4217.52 -3236.55 55.048901 9.2197031e-39
2454.75 -2915.4199 57.001202 9.2197031e-39
2459.9399 -2902.8101 53.424702 9.2197031e-39
2465.8401 -2890.99 50.0205 9.2197031e-39
1656.5601 -2762.74 55.967999 9.2197031e-39
1533.7 -2730.0898 53.398998 9.2197031e-39
1477.98 -2717.0801 52.709202 9.2197031e-39
1415.83 -2701.1201 51.556801 9.2197031e-39
1186.11 -2686.3999 58.9576 9.2197031e-39
1357.84 -2685.26 50.224098 9.2197031e-39
1169.33 -2673.8101 56.4627 9.2197031e-39
1286.11 -2676.9102 51.5476 9.2197031e-39
1161.03 -2666.3701 54.912102 9.2197031e-39
1152.5699 -2659.1802 53.432899 9.2197031e-39
628.45001 -2572.02 56.205399 9.2197031e-39
4165.73 -3253.3101 62.0056 9.2197031e-39
2428.27 -2948.73 67.074097 9.2197031e-39
2437.45 -2938.04 63.8074 9.2197031e-39
2431.22 -2922.6299 60.053398 9.2197031e-39
1257 -2732.5801 67.639297 9.2197031e-39
489.16699 -2597.99 69.883202 9.2197031e-39
518.31097 -2590.6699 66.525902 9.2197031e-39
543.57098 -2584.1299 63.561501 9.2197031e-39
2416.9099 -2959.3501 70.430702 9.2197031e-39
2324.1101 -2945.3 71.285202 9.2197031e-39
1311.12 -2769.8301 74.796402 9.2197031e-39
1409.8101 -2842.3601 89.057098 9.2197031e-39
1379.63 -2817.75 84.054199 9.2197031e-39
1411.8199 -2855.1599 92.3283 9.2197031e-39
1422.01 -2856.22 92.107399 9.2197031e-39
1462.3199 -2895.6201 100.507 9.2197031e-39
1556.51 -2975.5 116.924 9.2197031e-39
1522.08 -2943.54 110.197 9.2197031e-39
1807.36 -3175.5601 157.30701 9.2197031e-39
1779.24 -3143.71 150.298 9.2197031e-39
1825.99 -3212.8 166.203 9.2197031e-39
1818.54 -3195.0901 161.90199 9.2197031e-39
1849.17 -3242.47 172.881 9.2197031e-39
1934.73 -3322.7 189.812 9.2197031e-39
1994.45 -3399.3999 207.084 9.2197031e-39
1987.52 -3378.55 201.933 9.2197031e-39
-834.70203 -2877.54 208.51601 9.2197031e-39
-835.98999 -2861.77 204.424 9.2197031e-39
-844.83398 -2848.0901 201.255 9.2197031e-39
2012.91 -3429.49 214.106 9.2197031e-39
-836.71997 -2909.3899 217.005 9.2197031e-39
-840.26202 -2893.95 213.11099 9.2197031e-39
2062.3201 -3487.26 226.897 9.2197031e-39
-839.18103 -2957.25 229.733 9.2197031e-39
-833.27802 -2940.3301 224.985 9.2197031e-39
-836.13202 -2924.7 221.009 9.2197031e-39
2085.6299 -3523.5 235.299 9.2197031e-39
-838.70203 -2989.3101 238.153 9.2197031e-39
-834.09003 -2972.46 233.487 9.2197031e-39
-829.93799 -3019.4099 245.65199 9.2197031e-39
-835.242 -3005 242.116 9.2197031e-39
1048.61 -3414.78 257.57199 9.2197031e-39
1056.16 -3412.99 256.73001 9.2197031e-39
1088.98 -3417.55 256.32001 9.2197031e-39
1038.89 -3401.1399 254.45599 9.2197031e-39
1063.67 -3408.22 255.104 9.2197031e-39
1075.21 -3406.2549 254.02 9.2197031e-39
-831.828 -3069.48 258.93399 9.2197031e-39
-836.84698 -3054.0601 255.118 9.2197031e-39
-834.802 -3037.45 250.64301 9.2197031e-39
1037.1899 -3457.7 269.43701 9.2197031e-39
-831.07703 -3102.47 267.58801 9.2197031e-39
-836.40002 -3087.05 263.78699 9.2197031e-39
2286.9299 -3717.23 276.44699 9.2197031e-39
-829.67297 -3135.6201 276.25 9.2197031e-39
-834.35999 -3119.8899 272.33801 9.2197031e-39
2283.4099 -3755.5 286.69901 9.2197031e-39
2310.71 -3758.45 286.13599 9.2197031e-39
1033.88 -3512.3799 284.00299 9.2197031e-39
-829.271 -3186.24 289.565 9.2197031e-39
-825.74402 -3168.23 284.64801 9.2197031e-39
-832.61102 -3153.1699 281.01801 9.2197031e-39
2288.1001 -3780.47 293.048 9.2197031e-39
1845.72 -3721.3101 299.181 9.2197031e-39
1914.92 -3724.01 296.49701 9.2197031e-39
1931.52 -3723.6299 295.57999 9.2197031e-39
1947.42 -3721.1399 294.14499 9.2197031e-39
1964.12 -3720.3799 293.125 9.2197031e-39
2004.15 -3724.47 292.237 9.2197031e-39
2024.91 -3726.28 291.69501 9.2197031e-39
1860.22 -3719.3701 297.95801 9.2197031e-39
1876.49 -3718.4399 296.91501 9.2197031e-39
1891.67 -3716.9399 295.77399 9.2197031e-39
1980.75 -3718.27 291.75201 9.2197031e-39
-832.672 -3222.24 299.215 9.2197031e-39
-829.52502 -3204.04 294.267 9.2197031e-39
2303.46 -3816.99 301.914 9.2197031e-39
1758.41 -3731.55 306.16501 9.2197031e-39
1667.8101 -3728.72 309.86899 9.2197031e-39
1677.13 -3721.1499 307.41699 9.2197031e-39
1692.14 -3721.49 306.76901 9.2197031e-39
1707.76 -3723.6201 306.56299 9.2197031e-39
1726.15 -3728.53 306.95499 9.2197031e-39
1738.14 -3724.5901 305.327 9.2197031e-39
1769.34 -3725.7 304.08801 9.2197031e-39
1787.58 -3729.02 304.06799 9.2197031e-39
1798.49 -3722.9199 301.92599 9.2197031e-39
1813.96 -3721.9099 300.901 9.2197031e-39
1830.74 -3723.45 300.48199 9.2197031e-39
1033.2 -3603.6799 308.08701 9.2197031e-39
-668.37201 -3290.02 309.00299 9.2197031e-39
-669.68799 -3274.1899 304.897 9.2197031e-39
-829.802 -3256.3401 308.056 9.2197031e-39
-826.09998 -3237.6399 302.94901 9.2197031e-39
1654.87 -3754.9299 317.409 9.2197031e-39
1651.85 -3726.4299 310.048 9.2197031e-39
-648.59497 -3332.01 319.09201 9.2197031e-39
-655.13702 -3317.7 315.64301 9.2197031e-39
-662.98297 -3304.8601 312.646 9.2197031e-39
-825.33197 -3290.1799 316.75 9.2197031e-39
-832.05603 -3275.51 313.21701 9.2197031e-39
1634.51 -3795.5 329.09399 9.2197031e-39
-804.82703 -3317.26 322.87601 9.2197031e-39
-826.29401 -3309.0701 321.77399 9.2197031e-39
1636.5601 -3825.1499 336.802 9.2197031e-39
1031.3101 -3706.6299 335.297 9.2197031e-39
1637.5699 -3855.1899 344.66699 9.2197031e-39
-686.60797 -3440.5 349.53699 9.2197031e-39
-689.44299 -3424.1399 345.36499 9.2197031e-39
-694.242 -3408.04 341.36099 9.2197031e-39
1639.11 -3885.9299 352.689 9.2197031e-39
1242.66 -3828.6001 357.04999 9.2197031e-39
-827.86102 -3440.0901 356.362 9.2197031e-39
-807.901 -3449.54 357.87201 9.2197031e-39
1766.37 -3974.0901 369.664 9.2197031e-39
1639.6801 -3947.1599 368.78799 9.2197031e-39
1615.21 -3929.24 365.272 9.2197031e-39
1639.5699 -3917.0701 360.86899 9.2197031e-39
1227.83 -3872.1299 369.245 9.2197031e-39
1201.39 -3864.1101 368.42999 9.2197031e-39
1212.8101 -3861.1001 367.078 9.2197031e-39
1238.23 -3864.1699 366.63901 9.2197031e-39
1175.83 -3858.47 368.20001 9.2197031e-39
1187.75 -3858.53 367.63101 9.2197031e-39
1260.16 -3851.6799 362.272 9.2197031e-39
1285.91 -3854.8401 361.83801 9.2197031e-39
1272.22 -3849.02 360.97699 9.2197031e-39
-593.211 -3534.04 369.591 9.2197031e-39
-566.57397 -3536.01 368.80099 9.2197031e-39
-685.36298 -3515.0901 369.12399 9.2197031e-39
-692.35797 -3500.55 365.63599 9.2197031e-39
-698.78601 -3484.79 361.80099 9.2197031e-39
-714.93402 -3475.51 360.14801 9.2197031e-39
1032.2 -3869.4399 378.14099 9.2197031e-39
-579.60901 -3563.3201 376.63599 9.2197031e-39
-693.74103 -3540.03 376.104 9.2197031e-39
-650.479 -3532.23 371.92401 9.2197031e-39
-624.47302 -3535.51 371.51199 9.2197031e-39
2686.22 -4203.5498 384.948 9.2197031e-39
1642.01 -4016.71 386.996 9.2197031e-39
2638.74 -4244.9199 398.17499 9.2197031e-39
2645.78 -4222.0098 391.79501 9.2197031e-39
2679.5 -4226.6699 391.36801 9.2197031e-39
1639.9301 -4047.3701 395.17499 9.2197031e-39
1332.97 -3980.45 392.616 9.2197031e-39
2593.04 -4257.3101 403.68301 9.2197031e-39
2550.22 -4241.2598 401.55801 9.2197031e-39
2612.8 -4247.3701 400.095 9.2197031e-39
2510.4299 -4228.8896 400.25299 9.2197031e-39
1826.98 -4110.3799 402.58801 9.2197031e-39
1645.67 -4094.73 407.36801 9.2197031e-39
1642.42 -4125.6001 415.65799 9.2197031e-39
1643.24 -4165.21 426.052 9.2197031e-39
1031.29 -4061.3201 428.729 9.2197031e-39
1646.47 -4214.21 438.79999 9.2197031e-39
-800.50598 -3756.76 438.435 9.2197031e-39
-797.56 -3732.78 431.974 9.2197031e-39
1646.26 -4254.98 449.54901 9.2197031e-39
-797.78699 -3800.6799 449.86899 9.2197031e-39
-795.40198 -3776.48 443.379 9.2197031e-39
-797.71698 -3824.5601 456.15799 9.2197031e-39
1648.61 -4306.0898 462.89801 9.2197031e-39
-794.14899 -3869.54 467.82999 9.2197031e-39
-794.00897 -3844.8799 461.32901 9.2197031e-39
1650.51 -4356.1797 475.99799 9.2197031e-39
-787.18201 -3912.97 478.92899 9.2197031e-39
-794.57501 -3893.5901 474.185 9.2197031e-39
1647.99 -4399.3999 487.508 9.2197031e-39
-795.42902 -3943.95 487.49399 9.2197031e-39
-788.23297 -3989.1101 499.03601 9.2197031e-39
-788.24701 -3964.0601 492.439 9.2197031e-39
1648.27 -4449.75 500.755 9.2197031e-39
-795.435 -4021.98 508.048 9.2197031e-39
-787.12299 -4068.27 519.83398 9.2197031e-39
-787.323 -4040.8899 512.63098 9.2197031e-39
1662.7 -4544.5 525.00598 9.2197031e-39
1036.79 -4434.8999 526.86401 9.2197031e-39
-790.88202 -4098.3301 527.93597 9.2197031e-39
-570.31598 -4163.1299 534.177 9.2197031e-39
-696.81201 -4150.6299 537.09497 9.2197031e-39
-673.43903 -4155.27 537.16803 9.2197031e-39
-637.08301 -4147.7598 533.40503 9.2197031e-39
-606.45599 -4144.02 530.91699 9.2197031e-39
-581.34497 -4146.8999 530.44299 9.2197031e-39
-788.48297 -4124.6602 534.75403 9.2197031e-39
1673.14 -4630.1396 547.05298 9.2197031e-39
1607.83 -4621.48 547.97803 9.2197031e-39
1626.03 -4613.0801 544.87299 9.2197031e-39
1642.29 -4602.0498 541.16803 9.2197031e-39
-738.50598 -4162.0098 542.138 9.2197031e-39
-788.59601 -4152.3604 542.05603 9.2197031e-39
1567.54 -4622.6602 550.26801 9.2197031e-39
1589.5601 -4626.6797 550.245 9.2197031e-39
1525.55 -4616.5703 550.724 9.2197031e-39
1546.8101 -4619.1299 550.354 9.2197031e-39
-790.45203 -4183.5898 550.375 9.2197031e-39
989.57599 -4626.5703 579.67102 9.2197031e-39
1008.46 -4614.6899 575.61603 9.2197031e-39
1026.38 -4606.5498 572.591 9.2197031e-39
838.75403 -4630.6797 588.15802 9.2197031e-39
858.07703 -4631.71 587.48199 9.2197031e-39
876.487 -4632.54 586.797 9.2197031e-39
895.77899 -4635.1797 586.54498 9.2197031e-39
933.57898 -4634.1499 584.41699 9.2197031e-39
801.24597 -4625.29 588.57898 9.2197031e-39
820.35797 -4629.54 588.76099 9.2197031e-39
914.33698 -4626.0303 583.224 9.2197031e-39
951.948 -4624.6797 581.02197 9.2197031e-39
971.19897 -4624.7402 580.091 9.2197031e-39
746.216 -4610.7803 587.45898 9.2197031e-39
764.53998 -4611.5601 586.76703 9.2197031e-39
784.28198 -4605.5303 584.20801 9.2197031e-39
-770.21698 -4411.6699 609.461 9.2197031e-39
-595.255 -4480.8203 619.086 9.2197031e-39
-548.11298 -4455.2197 610.02802 9.2197031e-39
-771.75 -4446.2197 618.63501 9.2197031e-39
-748.23297 -4488.54 628.62799 9.2197031e-39
-686.24103 -4485.8301 624.87097 9.2197031e-39
-628.56201 -4486.1797 622.13098 9.2197031e-39
-709.151 -4478.8101 624.14801 9.2197031e-39
-650.73102 -4478.98 621.32397 9.2197031e-39
-750.66302 -4457.52 620.578 9.2197031e-39
710.29602 -4771.1899 631.47699 9.2197031e-39
691.40997 -4762.25 630.04999 9.2197031e-39
-175.215 -4629.2197 637.55298 9.2197031e-39
-207.76601 -4600.27 631.526 9.2197031e-39
-185.30099 -4602.23 630.93903 9.2197031e-39
-164.311 -4653.1602 643.32397 9.2197031e-39
-325.05099 -4630.6602 645.28998 9.2197031e-39
-250.86301 -4632.1299 642.03601 9.2197031e-39
-425.755 -4624.6699 648.65503 9.2197031e-39
-401.974 -4627.9199 648.34399 9.2197031e-39
-372.659 -4624.0898 645.89697 9.2197031e-39
-350.57001 -4629.29 646.18103 9.2197031e-39
-298.06699 -4627.0703 643.01801 9.2197031e-39
-273.246 -4628.7197 642.23499 9.2197031e-39
-160.50101 -4693.9199 653.875 9.2197031e-39
-484.211 -4631.2998 653.27301 9.2197031e-39
-567.36102 -4629.7197 656.93903 9.2197031e-39
-537.729 -4628.6499 655.20203 9.2197031e-39
-509.17001 -4626.6299 653.26703 9.2197031e-39
-455.35901 -4627.8604 650.94897 9.2197031e-39
-611.54999 -4612.02 654.44598 9.2197031e-39
-633.42297 -4603.5703 653.29303 9.2197031e-39
-577.21198 -4605.2402 650.974 9.2197031e-39
-322.93301 -5066.04 759.86902 9.2197031e-39
-276.54401 -5148.2798 779.255 9.2197031e-39
-246.603 -5143.5298 776.534 9.2197031e-39
-190.74001 -5144.2402 773.97998 9.2197031e-39
-215.299 -5138.0801 773.56201 9.2197031e-39
-331.729 -5143.27 780.64502 9.2197031e-39
-304.89301 -5146.0801 780.06799 9.2197031e-39
-191.04401 -5212.1299 791.87598 9.2197031e-39
-191.76199 -5280.6499 809.961 9.2197031e-39
-191.55901 -5353.4502 829.12903 9.2197031e-39
-189.255 -5420.6001 846.70398 9.2197031e-39
-247.213 -6128.1802 1035.9301 9.2197031e-39
-223.937 -6170.0098 1045.8101 9.2197031e-39
-358.54599 -6137.7598 1043.92 9.2197031e-39
-322.55301 -6136.8701 1041.92 9.2197031e-39
-306.29999 -6198.3799 1057.33 9.2197031e-39
-248.409 -6361.6401 1097.49 9.2197031e-39
270.095 -7676.8599 1418.48 9.2197031e-39
177.44099 -7663.6201 1419.54 9.2197031e-39
130.073 -7656.2402 1419.92 9.2197031e-39
224.08501 -7659.75 1416.23 9.2197031e-39
-153.03999 -7637.8501 1428.98 9.2197031e-39
-103.667 -7637.2798 1426.4 9.2197031e-39
26.1628 -7706.27 1438.2 9.2197031e-39
75.444397 -7705.9902 1435.71 9.2197031e-39
-19.5151 -7698.9399 1438.52 9.2197031e-39
-63.697399 -7671.8398 1433.54 9.2197031e-39
-200.062 -7637.5298 1431.2 9.2197031e-39
-294.09 -7624.8101 1432.47 9.2197031e-39
-247.216 -7626.8901 1430.71 9.2197031e-39
-486.87701 -7612.1802 1438.61 9.2197031e-39
-390.25101 -7618.8799 1435.63 9.2197031e-39
-342.789 -7619.9102 1433.5699 9.2197031e-39
-535.97998 -7606.4702 1439.51 9.2197031e-39
-437.246 -7606.5898 1434.7 9.2197031e-39
-579.52899 -7589.8799 1437.28 9.2197031e-39
291.45901 -7879.3398 1470.77 9.2197031e-39
