# .PCD v0.7 - Point Cloud Data file format
VERSION 0.7
FIELDS x y z rgb
SIZE 4 4 4 4
TYPE F F F F
COUNT 1 1 1 1
WIDTH 344
HEIGHT 1
VIEWPOINT 0 0 0 1 0 0 0
POINTS 344
DATA ascii
4140.7202 -3119.55 39.6973 9.2197031e-39
4111.3198 -3087.1299 32.611198 9.2197031e-39
807.91901 -2493.8701 39.6796 9.2197031e-39
813.98199 -2496.1201 39.970901 9.2197031e-39
74.111504 -2351.1201 38.3619 9.2197031e-39
50.501499 -2340.5 36.730701 9.2197031e-39
60.854698 -2333.5601 34.391899 9.2197031e-39
77.772301 -2329.97 32.611198 9.2197031e-39
4119.4502 -3144.1599 47.228199 9.2197031e-39
2468.3899 -2844.5701 49.952702 9.2197031e-39
2459.4399 -2830.1101 46.584702 9.2197031e-39
1319.12 -2625.76 49.140301 9.2197031e-39
1252.98 -2611.71 48.710701 9.2197031e-39
1270.99 -2614.5801 48.577499 9.2197031e-39
1285.91 -2618.03 48.745899 9.2197031e-39
1216.67 -2602.8101 48.162701 9.2197031e-39
1217.79 -2599.6099 47.264801 9.2197031e-39
1120.3199 -2588.3901 49.126801 9.2197031e-39
1172.6 -2585.98 45.908901 9.2197031e-39
1150.49 -2579.75 45.361698 9.2197031e-39
1085.2151 -2566.155 45.007 9.2197031e-39
1069.35 -2550.0601 41.551498 9.2197031e-39
1076.2272 -2554.7302 42.443031 9.2197031e-39
1085.92 -2552.4199 41.355 9.2197031e-39
795.526 -2514.6201 45.756199 9.2197031e-39
801.66461 -2515.7434 45.747437 9.2197031e-39
795.94867 -2506.0266 43.472332 9.2197031e-39
805.203 -2503.4102 42.324299 9.2197031e-39
812.125 -2500.7148 41.273552 9.2197031e-39
742.78497 -2490.1299 41.914501 9.2197031e-39
781.91699 -2491.26 40.276299 9.2197031e-39
790.73999 -2493.6201 40.463402 9.2197031e-39
806.58765 -2497.7666 40.770466 9.2197031e-39
681.91803 -2484.5801 43.462002 9.2197031e-39
724.00299 -2486.96 42.0065 9.2197031e-39
603.50897 -2470.22 43.556301 9.2197031e-39
611.50897 -2472.6699 43.804699 9.2197031e-39
623.71399 -2478.02 44.611351 9.2197031e-39
573.97198 -2464.0801 43.398102 9.2197031e-39
506.776 -2451.4399 43.3913 9.2197031e-39
525.21698 -2457.73 44.1362 9.2197031e-39
456.21201 -2443.5 43.799702 9.2197031e-39
447.862 -2437.3999 42.6073 9.2197031e-39
401.48099 -2428.5801 42.577202 9.2197031e-39
324.84 -2413.1699 42.306702 9.2197031e-39
180.675 -2389.2 43.122501 9.2197031e-39
119.39 -2372.77 41.824299 9.2197031e-39
63.8908 -2358.1001 40.704399 9.2197031e-39
4209.8198 -3190.3999 54.940498 9.2197031e-39
2454.3799 -2868.1699 56.859001 9.2197031e-39
2457.3701 -2856.4299 53.6203 9.2197031e-39
1628.65 -2706.3701 55.069199 9.2197031e-39
1551.8101 -2686.8901 53.736801 9.2197031e-39
1481.64 -2670.23 52.818802 9.2197031e-39
1442.4301 -2660.8398 52.283699 9.2197031e-39
1194.5601 -2640.6899 59.231098 9.2197031e-39
1382.3199 -2645.4199 51.195301 9.2197031e-39
1179.72 -2628.0801 56.644001 9.2197031e-39
1164.34 -2617.6299 54.653 9.2197031e-39
1152.6 -2607.52 52.568901 9.2197031e-39
622.18903 -2526.99 57.582699 9.2197031e-39
2439.21 -2905.6699 67.485199 9.2197031e-39
2435.1599 -2890.1001 63.584099 9.2197031e-39
2431.5701 -2876.77 60.2523 9.2197031e-39
1209.5601 -2651.6602 61.378799 9.2197031e-39
517.00403 -2545.1401 67.562202 9.2197031e-39
551.36902 -2536.7 63.6394 9.2197031e-39
2403.1201 -2922.21 73.625 9.2197031e-39
2340.25 -2915.45 74.9533 9.2197031e-39
2425.21 -2914.23 70.430702 9.2197031e-39
1283.97 -2702.1899 71.005501 9.2197031e-39
488.05301 -2551.6401 70.704498 9.2197031e-39
1393.8101 -2781.3 86.411598 9.2197031e-39
1358.72 -2752.6001 80.587601 9.2197031e-39
1466.6 -2846.46 99.970596 9.2197031e-39
1457.98 -2835.3 97.458199 9.2197031e-39
1432.1 -2810.9099 92.313797 9.2197031e-39
1513.83 -2886.96 108.303 9.2197031e-39
1589.11 -2946.52 120.266 9.2197031e-39
1774.92 -3090.1499 148.90601 9.2197031e-39
1808.1899 -3124.3501 156.267 9.2197031e-39
1826.99 -3174.6299 168.57899 9.2197031e-39
1833.96 -3166.9099 166.203 9.2197031e-39
1818.27 -3144.3601 161.03999 9.2197031e-39
1846.01 -3200.6699 174.498 9.2197031e-39
1927.66 -3279.96 191.341 9.2197031e-39
2001.42 -3353.1001 206.957 9.2197031e-39
-826.547 -2828.8 208.68201 9.2197031e-39
-829.51703 -2812.8 204.614 9.2197031e-39
-828.78302 -2797.99 200.679 9.2197031e-39
2007.28 -3374.23 212.23199 9.2197031e-39
-831.53601 -2861.25 217.474 9.2197031e-39
-833.823 -2845.01 213.30901 9.2197031e-39
2054.0601 -3428.22 224.13901 9.2197031e-39
-824.09399 -2906.3501 228.98199 9.2197031e-39
-826.18701 -2891.8101 225.257 9.2197031e-39
-829.72601 -2875.8 221.215 9.2197031e-39
2114.5901 -3497.8999 239.495 9.2197031e-39
-824.651 -2938.53 237.485 9.2197031e-39
-827.04401 -2923.95 233.76401 9.2197031e-39
-823.62701 -2970.6101 245.883 9.2197031e-39
-828.23999 -2956.51 242.396 9.2197031e-39
1056.3101 -3371.74 258.58801 9.2197031e-39
1080.73 -3371.9099 257.42499 9.2197031e-39
1064.26 -3368.99 257.47 9.2197031e-39
1071.5601 -3366.1599 256.36301 9.2197031e-39
1088.15 -3369.8999 256.52802 9.2197031e-39
1095.09 -3361.1499 253.88 9.2197031e-39
1045.98 -3348.46 252.967 9.2197031e-39
-825.86603 -3021.3101 259.345 9.2197031e-39
-830.57098 -3005.28 255.35699 9.2197031e-39
-825.93103 -2988.45 250.694 9.2197031e-39
-824.20697 -3054.04 267.88199 9.2197031e-39
-820.66803 -3035.3999 262.79901 9.2197031e-39
2289.04 -3667.3701 275.5 9.2197031e-39
1046.16 -3428.1399 273.94 9.2197031e-39
-822.84698 -3087.2 276.548 9.2197031e-39
-817.77197 -3067.8101 271.19101 9.2197031e-39
2316.8 -3713.75 286.345 9.2197031e-39
2021.8199 -3670.8799 289.634 9.2197031e-39
-821.258 -3136.9299 289.565 9.2197031e-39
-819.896 -3120.1699 285.08401 9.2197031e-39
-825.492 -3104.1799 281.14899 9.2197031e-39
2311.6201 -3751.8601 296.63501 9.2197031e-39
2309.74 -3727.51 290.315 9.2197031e-39
1907.65 -3681.8799 298.17499 9.2197031e-39
1852.61 -3676.5801 299.50101 9.2197031e-39
1868.15 -3674.3 298.133 9.2197031e-39
1883.38 -3673.75 297.23599 9.2197031e-39
1916.1801 -3672.53 295.293 9.2197031e-39
1938.84 -3677.8799 295.57999 9.2197031e-39
1949.84 -3671.3101 293.306 9.2197031e-39
1973.38 -3676.9099 293.61899 9.2197031e-39
1988.9399 -3675.22 292.405 9.2197031e-39
2006.86 -3673.6699 291.10901 9.2197031e-39
1044.02 -3492.46 290.98599 9.2197031e-39
-819.15698 -3170.8 298.38101 9.2197031e-39
-824.646 -3156.3501 294.84799 9.2197031e-39
2325.0801 -3785.28 304.771 9.2197031e-39
1673.67 -3682.05 309.789 9.2197031e-39
1688.59 -3681.74 308.96799 9.2197031e-39
1658.16 -3678.6299 309.65399 9.2197031e-39
1699.55 -3677.3601 307.27301 9.2197031e-39
1715.08 -3677.5801 306.56299 9.2197031e-39
1729.79 -3678.7 306.133 9.2197031e-39
1744.91 -3677.77 305.14001 9.2197031e-39
1759.1801 -3677.77 304.43201 9.2197031e-39
1774.97 -3677.3201 303.534 9.2197031e-39
1789.9 -3677.79 302.92099 9.2197031e-39
1804.66 -3675.4099 301.56299 9.2197031e-39
1820.26 -3676.3501 301.039 9.2197031e-39
1837.47 -3676.78 300.30399 9.2197031e-39
-654.21997 -3238 307.92499 9.2197031e-39
-667.53101 -3228.1499 305.98901 9.2197031e-39
-823.71503 -3207.77 308.34201 9.2197031e-39
-822.17401 -3190.3601 303.68301 9.2197031e-39
1041.74 -3575.1001 312.86099 9.2197031e-39
-634.93597 -3280.47 318.15701 9.2197031e-39
-654.39899 -3272.0601 316.90399 9.2197031e-39
-655.47302 -3256.3701 312.82501 9.2197031e-39
-819.27399 -3241.6399 317.043 9.2197031e-39
-817.18597 -3223.75 312.229 9.2197031e-39
2376.28 -3857.8301 321.34698 9.2197031e-39
-823.18701 -3279.6101 327.23499 9.2197031e-39
-822.41998 -3261.9199 322.539 9.2197031e-39
1648.4 -3789.5801 339.35501 9.2197031e-39
1646.9301 -3758.8 331.32199 9.2197031e-39
1650.2 -3819.4399 347.13101 9.2197031e-39
1725.09 -3818.1899 343.09698 9.2197031e-39
1040.71 -3686.74 342.314 9.2197031e-39
-678.05902 -3390.8999 349.36899 9.2197031e-39
-675.17401 -3371.8601 344.21399 9.2197031e-39
-689.13 -3360.29 341.85501 9.2197031e-39
1740.21 -3870.3401 356.08401 9.2197031e-39
1650.6899 -3850.45 355.27301 9.2197031e-39
1247.63 -3775.3999 355.43201 9.2197031e-39
-704.24701 -3425.01 359.647 9.2197031e-39
-811.37402 -3386.3101 354.75101 9.2197031e-39
1634.95 -3879.3301 363.655 9.2197031e-39
1647.0699 -3871.8101 361.077 9.2197031e-39
1313.0699 -3837.3601 368.51501 9.2197031e-39
1195.61 -3815.6399 368.60101 9.2197031e-39
1206.5699 -3810.79 366.78299 9.2197031e-39
1220.14 -3815.3701 367.319 9.2197031e-39
1182 -3809.8701 367.755 9.2197031e-39
1230.02 -3805.5901 364.254 9.2197031e-39
1267.3101 -3805.0701 362.272 9.2197031e-39
1291.59 -3802.6101 360.42499 9.2197031e-39
1277.73 -3798.72 360.08499 9.2197031e-39
-675.23901 -3464.45 368.60001 9.2197031e-39
-694.48901 -3457.5 367.72198 9.2197031e-39
-700.55402 -3441.05 363.68799 9.2197031e-39
-820.75598 -3411.28 361.79199 9.2197031e-39
1757.91 -3931.5601 371.33099 9.2197031e-39
1642.27 -3924.45 375.17499 9.2197031e-39
1248.54 -3831.74 370.22501 9.2197031e-39
-566.37097 -3510.5 375.34399 9.2197031e-39
-689.94702 -3493.55 376.98999 9.2197031e-39
-596.38397 -3491.97 371.94901 9.2197031e-39
-569.26398 -3494.1599 371.185 9.2197031e-39
-652.10303 -3488.8601 373.884 9.2197031e-39
-619.80402 -3488.6599 372.23599 9.2197031e-39
2667.03 -4163.2598 387.41 9.2197031e-39
1652.63 -3980.51 389.42801 9.2197031e-39
1041.84 -3867.9199 389.97 9.2197031e-39
2652.3501 -4207.1001 399.67801 9.2197031e-39
2672.3 -4198.6499 396.46799 9.2197031e-39
1651.34 -4011 397.521 9.2197031e-39
2580.72 -4223.46 407.52802 9.2197031e-39
2611.98 -4225.25 406.45401 9.2197031e-39
2632.7 -4217.9399 403.504 9.2197031e-39
2523.8101 -4191.1299 401.828 9.2197031e-39
1653.16 -4088.4099 417.81699 9.2197031e-39
1656.41 -4059.49 410.04099 9.2197031e-39
1034.63 -3953.54 412.87399 9.2197031e-39
1653.6899 -4130.04 428.75299 9.2197031e-39
-747.71802 -3654.6899 422.28299 9.2197031e-39
1653.91 -4169.8896 439.237 9.2197031e-39
-785.17102 -3701.8701 436.55801 9.2197031e-39
-789.771 -3750.8301 449.67899 9.2197031e-39
-787.80402 -3727.23 443.367 9.2197031e-39
1656.78 -4220.7803 452.49701 9.2197031e-39
-791.78302 -3776.46 456.52802 9.2197031e-39
1659.15 -4269.9399 465.32501 9.2197031e-39
-787.492 -3820.8601 468.009 9.2197031e-39
-788.41602 -3796.79 461.71701 9.2197031e-39
1656.79 -4312.0601 476.535 9.2197031e-39
-783.66302 -3866.74 479.901 9.2197031e-39
-782.05798 -3840.1001 472.80801 9.2197031e-39
-783.81702 -3890.99 486.29599 9.2197031e-39
1660.65 -4369.6899 491.522 9.2197031e-39
-783.50897 -3941.73 499.64401 9.2197031e-39
-782.48999 -3916.01 492.82001 9.2197031e-39
1656.42 -4411.1201 502.64099 9.2197031e-39
-781.55298 -3966.95 506.18799 9.2197031e-39
-781.89203 -3992.9099 513.04102 9.2197031e-39
-778.95099 -4044.49 526.479 9.2197031e-39
-781.5 -4020.25 520.22101 9.2197031e-39
1685.4 -4544.2598 536.26898 9.2197031e-39
-673.58801 -4113.0498 539.32599 9.2197031e-39
-695.461 -4106.8799 538.78302 9.2197031e-39
-637.008 -4105.5703 535.54797 9.2197031e-39
-584.51398 -4108.4399 533.70898 9.2197031e-39
-554.24701 -4104.1699 531.08801 9.2197031e-39
-603.07098 -4098.5 532.008 9.2197031e-39
-777.88 -4072.03 533.67902 9.2197031e-39
1592.78 -4574.1299 548.71503 9.2197031e-39
1614.28 -4576.2402 548.20801 9.2197031e-39
1634.91 -4578.2002 547.703 9.2197031e-39
1675.76 -4576.8701 545.33502 9.2197031e-39
1529.88 -4563.7402 549.08899 9.2197031e-39
1652.84 -4568.8398 544.35303 9.2197031e-39
-782.14001 -4132.8999 549.92102 9.2197031e-39
-738.08398 -4118.9102 544.05798 9.2197031e-39
-775.388 -4097.1104 540.15997 9.2197031e-39
1552.88 -4575.8203 551.13202 9.2197031e-39
1574.25 -4578.3101 550.73102 9.2197031e-39
1048.1 -4501.0703 556.40002 9.2197031e-39
1014.35 -4580.3101 578.93701 9.2197031e-39
1032.83 -4566.3999 574.35901 9.2197031e-39
976.88098 -4591.27 583.67499 9.2197031e-39
807.203 -4580.9697 589.35101 9.2197031e-39
825.81201 -4584.2402 589.29102 9.2197031e-39
844.85303 -4584.48 588.41498 9.2197031e-39
863.466 -4588.3999 588.526 9.2197031e-39
882.60101 -4586.3896 587.052 9.2197031e-39
901.30499 -4588.0601 586.56702 9.2197031e-39
920.36902 -4587.6699 585.521 9.2197031e-39
939.07898 -4589.02 584.95099 9.2197031e-39
958.146 -4588.3101 583.82098 9.2197031e-39
995.771 -4581.54 580.17798 9.2197031e-39
770.37903 -4568.1602 587.797 9.2197031e-39
789.01001 -4569.8101 587.31097 9.2197031e-39
749.367 -4589.4102 594.43201 9.2197031e-39
-759.10699 -4357.2803 607.87097 9.2197031e-39
-590.12598 -4433.2002 619.51202 9.2197031e-39
-546.52197 -4412.4102 611.88098 9.2197031e-39
-741.02002 -4404.52 619.41998 9.2197031e-39
-763.40601 -4394.7998 617.966 9.2197031e-39
-741.90002 -4439.3203 628.62799 9.2197031e-39
-710.37 -4438.4102 626.828 9.2197031e-39
-680.53101 -4437.4399 625.099 9.2197031e-39
-651.18201 -4438.0303 623.802 9.2197031e-39
-622.22601 -4437.1201 622.13098 9.2197031e-39
696.17499 -4720.5898 631.60797 9.2197031e-39
716.06201 -4725.7803 631.99298 9.2197031e-39
-211.67599 -4569.3799 636.66699 9.2197031e-39
-158.718 -4560.96 631.83197 9.2197031e-39
-179.116 -4553.75 630.93903 9.2197031e-39
-582.95801 -4496.4199 635.80798 9.2197031e-39
-160.442 -4608.9902 644.565 9.2197031e-39
-396.87399 -4580.79 648.82501 9.2197031e-39
-373.883 -4586.7002 649.24701 9.2197031e-39
-348.509 -4587.1899 648.12097 9.2197031e-39
-321.05399 -4585.1699 646.23102 9.2197031e-39
-297.371 -4587.6001 645.70203 9.2197031e-39
-269.20099 -4583.3301 643.18298 9.2197031e-39
-245.198 -4584.4102 642.28101 9.2197031e-39
-420.771 -4577.3501 649.10101 9.2197031e-39
-152.877 -4641.8799 652.85199 9.2197031e-39
-561.211 -4580.75 656.93903 9.2197031e-39
-533.34399 -4581.9399 655.875 9.2197031e-39
-508.569 -4585.7002 655.64001 9.2197031e-39
-479.25299 -4583.8799 653.71399 9.2197031e-39
-454.61499 -4587.0898 653.341 9.2197031e-39
-571.66602 -4556.8799 651.17102 9.2197031e-39
-621.729 -4584.7598 660.987 9.2197031e-39
-210.491 -4804.46 698.51501 9.2197031e-39
-271.40701 -5099.4902 779.22302 9.2197031e-39
-241.117 -5094.96 776.534 9.2197031e-39
-214.11 -5098.21 776.05402 9.2197031e-39
-182.935 -5090.4302 772.46399 9.2197031e-39
-179.599 -5148.3198 787.54401 9.2197031e-39
-326.995 -5095.27 780.86102 9.2197031e-39
-300.24701 -5099.1899 780.56897 9.2197031e-39
-179.782 -5216.0698 805.396 9.2197031e-39
-182.42999 -5294.0098 826.052 9.2197031e-39
-181.291 -5364.9199 844.66901 9.2197031e-39
-186.22099 -5455.9902 868.89502 9.2197031e-39
-213.634 -6100.0898 1039.88 9.2197031e-39
-281.23199 -6086.4102 1039.61 9.2197031e-39
-244.52299 -6084.2002 1037.22 9.2197031e-39
-321.88599 -6098.23 1044.74 9.2197031e-39
-219.123 -6231.8999 1074.86 9.2197031e-39
-253.175 -6466.8101 1138.41 9.2197031e-39
224.7 -7623.27 1419.34 9.2197031e-39
272.39401 -7619.2202 1415.91 9.2197031e-39
132.011 -7610.0698 1420.4399 9.2197031e-39
178.08 -7618.29 1420.33 9.2197031e-39
-56.992699 -7600.7598 1427.33 9.2197031e-39
-151.18201 -7591.29 1429.5 9.2197031e-39
-103.482 -7593.3999 1427.6899 9.2197031e-39
-197.397 -7582.1899 1429.38 9.2197031e-39
75.824203 -7661.4502 1436.75 9.2197031e-39
-18.9981 -7653.3101 1439.29 9.2197031e-39
28.0012 -7659.96 1438.72 9.2197031e-39
-245.377 -7580.2002 1431.23 9.2197031e-39
-341.21399 -7574.0298 1434.34 9.2197031e-39
-293.33401 -7577.8101 1432.97 9.2197031e-39
-486.13599 -7564.8701 1439.1 9.2197031e-39
-389.01099 -7569.8599 1435.61 9.2197031e-39
-531.50098 -7550.1201 1437.45 9.2197031e-39
-435.194 -7558.71 1434.96 9.2197031e-39
293.64899 -7829.5601 1470.25 9.2197031e-39
