# .PCD v0.7 - Point Cloud Data file format
VERSION 0.7
FIELDS x y z rgb
SIZE 4 4 4 4
TYPE F F F F
COUNT 1 1 1 1
WIDTH 340
HEIGHT 1
VIEWPOINT 0 0 0 1 0 0 0
POINTS 340
DATA ascii
4391.6899 -2910.1899 32.544701 9.2197031e-39
1114.45 -2360.6499 38.332802 9.2197031e-39
1127.02 -2360.96 37.835899 9.2197031e-39
1115.6567 -2358.1733 37.622665 9.2197031e-39
1095.25 -2348.77 36.080799 9.2197031e-39
-834.95801 -2013.83 36.512699 9.2197031e-39
-828.354 -1998.84 32.250198 9.2197031e-39
4347.3198 -2931 40.078999 9.2197031e-39
3418.6899 -2803.5801 49.188499 9.2197031e-39
3432.47 -2785.4199 43.761002 9.2197031e-39
1248.91 -2422.5601 48.485699 9.2197031e-39
1218.41 -2412.6401 47.271 9.2197031e-39
1107.37 -2401.3501 49.400299 9.2197031e-39
1123.342 -2386.314 44.696655 9.2197031e-39
1116.515 -2375.2148 42.081951 9.2197031e-39
761.61499 -2342.22 49.708099 9.2197031e-39
783.14203 -2337.8101 47.551601 9.2197031e-39
809.70398 -2333.3101 45.142899 9.2197031e-39
834.39648 -2327.5352 42.481724 9.2197031e-39
845.93225 -2321.8799 40.458054 9.2197031e-39
746.492 -2312.03 42.433701 9.2197031e-39
765.47998 -2314.05 42.093201 9.2197031e-39
774.49298 -2315.8799 42.162899 9.2197031e-39
803.49103 -2317.23 41.182499 9.2197031e-39
836.01099 -2318.6699 40.067101 9.2197031e-39
652.70898 -2302.4399 44.221001 9.2197031e-39
680.60901 -2306.1099 43.905602 9.2197031e-39
717.534 -2309.3799 43.0672 9.2197031e-39
604.01501 -2294.2 44.2859 9.2197031e-39
641.81598 -2299.22 43.872299 9.2197031e-39
541.55402 -2283.3101 44.285801 9.2197031e-39
577.23901 -2289.3901 44.247799 9.2197031e-39
523.51001 -2270.4199 41.713799 9.2197031e-39
530.4975 -2276.8052 43.079102 9.2197031e-39
464.23401 -2260.1401 41.729801 9.2197031e-39
285.866 -2235.47 43.428501 9.2197031e-39
-840.87903 -2059.6499 48.8792 9.2197031e-39
-838.75 -2044.66 44.825298 9.2197031e-39
-836.37097 -2028.9399 40.565899 9.2197031e-39
3620.8401 -2867.8701 56.854198 9.2197031e-39
1446.77 -2484.3901 55.699501 9.2197031e-39
1473.61 -2489.6099 55.8414 9.2197031e-39
1406.88 -2474.02 54.797901 9.2197031e-39
1366.36 -2462.46 53.611698 9.2197031e-39
1225.54 -2451.3198 57.153 9.2197031e-39
1218.03 -2444.4302 55.679199 9.2197031e-39
1321.35 -2448.5601 52.013401 9.2197031e-39
1181.42 -2422.1802 51.492001 9.2197031e-39
726.30902 -2348.74 53.053398 9.2197031e-39
-583.81799 -2122.51 53.639599 9.2197031e-39
-832.06702 -2076.8398 53.012199 9.2197031e-39
3873.0801 -2945.5801 65.758102 9.2197031e-39
1307.36 -2500.75 66.433098 9.2197031e-39
571.92401 -2379.8799 68.379303 9.2197031e-39
590.46899 -2370.1401 64.955803 9.2197031e-39
632.39899 -2367.1899 62.2472 9.2197031e-39
3872.3201 -2971.6201 72.665901 9.2197031e-39
1385.26 -2563.8198 79.4981 9.2197031e-39
1394.21 -2564.6499 79.303703 9.2197031e-39
1385.33 -2554.49 77.030197 9.2197031e-39
1341.79 -2524.6001 71.1446 9.2197031e-39
480.194 -2398.6602 77.560097 9.2197031e-39
4074.01 -3044.24 82.550598 9.2197031e-39
1392.25 -2573.1099 81.6269 9.2197031e-39
4128.8599 -3113.4199 98.2882 9.2197031e-39
4137.3999 -3088.02 91.190903 9.2197031e-39
1495.39 -2656.52 98.897301 9.2197031e-39
1482.51 -2641.97 95.650803 9.2197031e-39
1464.52 -2624.24 91.797798 9.2197031e-39
267.21301 -2440.5801 98.429199 9.2197031e-39
4124.5898 -3141.3 105.844 9.2197031e-39
1562.1801 -2708.3398 109.502 9.2197031e-39
4129.1001 -3170.22 113.272 9.2197031e-39
4113.7002 -3195.1699 120.566 9.2197031e-39
4195.4399 -3246.74 130.41701 9.2197031e-39
1958.84 -3039.8501 178.75101 9.2197031e-39
1966.6899 -3033.02 176.58701 9.2197031e-39
1999.6 -3030.72 174.465 9.2197031e-39
1974.79 -3025.7 174.283 9.2197031e-39
1935.61 -3074.5701 188.987 9.2197031e-39
1932 -3058.8101 184.993 9.2197031e-39
1937.17 -3049.4299 182.27901 9.2197031e-39
1954.58 -3049.99 181.625 9.2197031e-39
-616.789 -2609.6001 183.73199 9.2197031e-39
1866.37 -3097.0801 198.116 9.2197031e-39
1876.11 -3092.45 196.444 9.2197031e-39
1940.2 -3092.0801 193.39799 9.2197031e-39
1989.22 -3160.8999 209.30701 9.2197031e-39
1840.14 -3128.2 207.535 9.2197031e-39
1964.78 -3125.74 201.151 9.2197031e-39
1835.6 -3110.3799 203.043 9.2197031e-39
1846.47 -3106.3899 201.489 9.2197031e-39
1859.9301 -3105.29 200.577 9.2197031e-39
-839.61499 -2667.1001 209.16701 9.2197031e-39
1830.52 -3162.1499 216.94099 9.2197031e-39
1974.3101 -3162.6499 210.45399 9.2197031e-39
1833.99 -3150.71 213.761 9.2197031e-39
1836.95 -3139.6201 210.698 9.2197031e-39
-835.53497 -2698.51 217.271 9.2197031e-39
-837.245 -2682.3301 213.078 9.2197031e-39
1837.95 -3199.6101 226.48599 9.2197031e-39
1841.84 -3188.03 223.252 9.2197031e-39
-833.75403 -2746.48 229.851 9.2197031e-39
-828.93903 -2729.46 225.13699 9.2197031e-39
-831.914 -2713.51 221.064 9.2197031e-39
-825.32397 -2777.1799 237.567 9.2197031e-39
-829.50403 -2762.22 233.812 9.2197031e-39
-834.54999 -2812.73 247.375 9.2197031e-39
-830.39801 -2795.3999 242.61 9.2197031e-39
1947.28 -3329.6101 255.771 9.2197031e-39
-824.92499 -2843.45 255.041 9.2197031e-39
-829.68799 -2828.48 251.311 9.2197031e-39
-827.27802 -2895.3501 268.85101 9.2197031e-39
-833.70502 -2879.8999 265.06799 9.2197031e-39
-828.33398 -2861.7 260.01801 9.2197031e-39
-834.00897 -2932.01 278.83801 9.2197031e-39
-831.34802 -2913.4099 273.80399 9.2197031e-39
-823.16602 -2963.0601 286.535 9.2197031e-39
-828.33502 -2947.02 282.53699 9.2197031e-39
2085.5701 -3495.79 293.272 9.2197031e-39
-827.51398 -2999.9099 296.46201 9.2197031e-39
-826.52002 -2981.4099 291.53101 9.2197031e-39
2101.96 -3533.79 302.548 9.2197031e-39
-824.63599 -3034.55 305.47299 9.2197031e-39
-830.47803 -3018.45 301.491 9.2197031e-39
1048.96 -3393.78 314.05701 9.2197031e-39
1058.71 -3390.3799 312.70999 9.2197031e-39
1088.36 -3397.0901 313.11801 9.2197031e-39
1068.08 -3388.8501 311.87601 9.2197031e-39
1078.08 -3389.1399 311.49301 9.2197031e-39
-820.54602 -3086.95 319.11499 9.2197031e-39
-827.45001 -3071.99 315.48499 9.2197031e-39
-825.39502 -3052.48 310.23901 9.2197031e-39
1042.04 -3442.49 327.23401 9.2197031e-39
-824.026 -3125.54 329.46301 9.2197031e-39
-821.30499 -3106.1799 324.22601 9.2197031e-39
1108.37 -3489.6399 336.62701 9.2197031e-39
-826.65601 -3164.5 339.86801 9.2197031e-39
-825.25897 -3145.3501 334.75 9.2197031e-39
2004.26 -3691.02 348.548 9.2197031e-39
2020.38 -3688.1799 347.056 9.2197031e-39
-819.55798 -3199.46 348.76901 9.2197031e-39
-818.54602 -3180.21 343.642 9.2197031e-39
1885.97 -3702.01 356.89301 9.2197031e-39
1920.02 -3700.6399 354.96399 9.2197031e-39
1780.35 -3693.3301 359.46301 9.2197031e-39
1796.95 -3693.26 358.67999 9.2197031e-39
1814.53 -3695.8701 358.56 9.2197031e-39
1831.27 -3695.4299 357.67499 9.2197031e-39
1850.0699 -3699.3301 357.83801 9.2197031e-39
1865.38 -3696.04 356.26599 9.2197031e-39
1897.5699 -3692.6399 353.88599 9.2197031e-39
1937.15 -3699.0801 353.76401 9.2197031e-39
1953.14 -3696.9299 352.45999 9.2197031e-39
1971.49 -3696.6101 351.53101 9.2197031e-39
1988.72 -3695.6899 350.49701 9.2197031e-39
-663.77802 -3251.1799 355.25201 9.2197031e-39
-819.95099 -3219.54 354.08801 9.2197031e-39
1660.41 -3703.21 367.59399 9.2197031e-39
1676.1899 -3703.5601 366.95801 9.2197031e-39
1690.09 -3701.4099 365.75201 9.2197031e-39
1724.04 -3706.79 365.60999 9.2197031e-39
1737.26 -3701.3201 363.55801 9.2197031e-39
1755.53 -3706.3201 364.034 9.2197031e-39
1770.6899 -3703.97 362.71799 9.2197031e-39
1705.0601 -3699.71 364.61401 9.2197031e-39
1038.02 -3588.79 366.03699 9.2197031e-39
-644.35303 -3296.5901 366.34399 9.2197031e-39
-661.56702 -3288.0701 364.888 9.2197031e-39
-820.63202 -3278.76 369.75 9.2197031e-39
-737.14099 -3272.79 364.33301 9.2197031e-39
-671.51703 -3274.2 361.68399 9.2197031e-39
-819.60699 -3258.73 364.418 9.2197031e-39
-827.56403 -3242.55 360.513 9.2197031e-39
-819.258 -3298.6799 374.94601 9.2197031e-39
2211.74 -3883.76 389.87601 9.2197031e-39
2237.72 -3887.8501 389.75699 9.2197031e-39
1669.72 -3753.5701 380.457 9.2197031e-39
2452.3501 -3943.97 394.694 9.2197031e-39
2322.1399 -3935.05 398.32999 9.2197031e-39
2348.26 -3938.4399 398.02301 9.2197031e-39
2373.97 -3939.45 397.10699 9.2197031e-39
2397.1399 -3938.49 395.78799 9.2197031e-39
2417.1699 -3932.25 393.21899 9.2197031e-39
2196.22 -3891.3401 392.59 9.2197031e-39
2266.28 -3895.95 390.582 9.2197031e-39
1643.1801 -3798.72 393.59698 9.2197031e-39
-688.05298 -3404 396.707 9.2197031e-39
-733.62598 -3391.6101 395.535 9.2197031e-39
-694.422 -3387.96 392.76801 9.2197031e-39
1644.58 -3837.0701 403.65601 9.2197031e-39
-717.06 -3444.6599 408.77499 9.2197031e-39
-810.27698 -3418.6201 406.194 9.2197031e-39
1706.65 -3902.3601 418.03201 9.2197031e-39
1648.09 -3883.8999 415.854 9.2197031e-39
1284.26 -3830.6299 418.54099 9.2197031e-39
1298.74 -3833.9399 418.74799 9.2197031e-39
-587.68903 -3502.5901 418.112 9.2197031e-39
-567.94202 -3509.6599 419.07101 9.2197031e-39
-683.25299 -3485.6299 418.035 9.2197031e-39
-696.89001 -3473.98 415.58801 9.2197031e-39
-699.56702 -3453.77 410.375 9.2197031e-39
1648.52 -3923.4099 426.26501 9.2197031e-39
1174.89 -3848.97 428.41699 9.2197031e-39
1188.23 -3846.52 427.15601 9.2197031e-39
1202.21 -3843.8799 425.815 9.2197031e-39
1215.92 -3844.0801 425.237 9.2197031e-39
1230.01 -3842.1599 424.08099 9.2197031e-39
1259.1899 -3847.6001 424.17401 9.2197031e-39
1242.26 -3833.53 421.23801 9.2197031e-39
1270.8199 -3835.8799 420.54599 9.2197031e-39
-562.62598 -3526.75 423.336 9.2197031e-39
-684.17401 -3508.7 424.16699 9.2197031e-39
-644.888 -3501.6799 420.505 9.2197031e-39
-620.29498 -3505.8799 420.483 9.2197031e-39
1629.9 -3960.3999 436.88501 9.2197031e-39
1647.9301 -3964.21 437.061 9.2197031e-39
1036.49 -3865.55 439.164 9.2197031e-39
1770.5 -4003.5801 441.81201 9.2197031e-39
1022.54 -3880.3 443.69901 9.2197031e-39
1652.4 -4064.05 463.20999 9.2197031e-39
1653.41 -4113.1499 476.12399 9.2197031e-39
1653.46 -4164.4697 489.67001 9.2197031e-39
-784.82703 -3726.8601 486.38699 9.2197031e-39
-783.63898 -3777.4099 499.67599 9.2197031e-39
-784.33698 -3751.4099 492.84299 9.2197031e-39
1655.72 -4222.0898 504.77499 9.2197031e-39
1196.41 -4157.3203 508.82001 9.2197031e-39
-788.51501 -3807.21 507.76501 9.2197031e-39
1652.67 -4270 517.56299 9.2197031e-39
-784.13202 -3830.9199 513.823 9.2197031e-39
1643.21 -4298.3501 525.47998 9.2197031e-39
-783.95599 -3885.55 528.23602 9.2197031e-39
-786.78302 -3859.74 521.55103 9.2197031e-39
1633.6 -4330.6299 534.44397 9.2197031e-39
-784.414 -3913.3301 535.59003 9.2197031e-39
-780.64398 -3967.3401 549.672 9.2197031e-39
-780.901 -3939.3301 542.29102 9.2197031e-39
1639.49 -4410.9102 555.36401 9.2197031e-39
-785.63098 -4002.27 559.12402 9.2197031e-39
-783.87201 -4029.8799 566.33002 9.2197031e-39
-593.64301 -4110.8203 578.94 9.2197031e-39
-621.38202 -4109.2803 579.81 9.2197031e-39
-564.26898 -4108.4199 576.95398 9.2197031e-39
-780.97302 -4058.3301 573.70599 9.2197031e-39
1656.34 -4535.4102 587.45398 9.2197031e-39
-700.22699 -4131.6602 589.34601 9.2197031e-39
-725.68103 -4127.4902 589.41699 9.2197031e-39
-663.513 -4124.6899 585.81598 9.2197031e-39
-774.82501 -4114.7598 588.31897 9.2197031e-39
-783.30402 -4090.98 582.43201 9.2197031e-39
1643.16 -4562.1201 595.10999 9.2197031e-39
-770.92297 -4142.0303 595.33698 9.2197031e-39
1499.29 -4591.6899 609.53699 9.2197031e-39
1521.59 -4593.0303 608.86499 9.2197031e-39
1543.87 -4598.1602 609.19397 9.2197031e-39
1564.64 -4592.5098 606.745 9.2197031e-39
1610.14 -4599.6602 606.53802 9.2197031e-39
1630.15 -4594.6299 604.28998 9.2197031e-39
1477.4399 -4587.1001 609.33197 9.2197031e-39
1584.6 -4587.8604 604.599 9.2197031e-39
-615.46399 -4202.23 604.07397 9.2197031e-39
1020.66 -4582.4199 629.12 9.2197031e-39
938.466 -4603.6299 638.50403 9.2197031e-39
897.48102 -4594.3501 637.94 9.2197031e-39
917.56598 -4594.23 636.98297 9.2197031e-39
958.67999 -4596.4102 635.66498 9.2197031e-39
979.76001 -4596.7598 634.78802 9.2197031e-39
999.828 -4596.9199 633.90802 9.2197031e-39
835.39001 -4589.7197 639.57501 9.2197031e-39
754.36298 -4572.8301 638.84601 9.2197031e-39
775.07898 -4576.8701 638.96002 9.2197031e-39
795.39801 -4573.9102 637.242 9.2197031e-39
876.05798 -4601.0098 640.68298 9.2197031e-39
814.73798 -4596.8701 642.414 9.2197031e-39
855.94598 -4599.8203 641.29602 9.2197031e-39
-547.69501 -4407.5303 655.146 9.2197031e-39
-543.25598 -4440.02 663.51599 9.2197031e-39
-737.91199 -4421.6699 667.633 9.2197031e-39
-714.27698 -4429.8999 668.71802 9.2197031e-39
-681.849 -4428.6602 666.89801 9.2197031e-39
-652.914 -4429.4199 665.76703 9.2197031e-39
-621.96899 -4428.9902 664.22803 9.2197031e-39
-589.79199 -4424.3999 661.53699 9.2197031e-39
-753.74902 -4401.98 663.16498 9.2197031e-39
-162.802 -4568.0601 679.80402 9.2197031e-39
715.40002 -4744.4502 685.94299 9.2197031e-39
694.31 -4730.2803 683.17297 9.2197031e-39
-189.05499 -4568.1396 681.03302 9.2197031e-39
-161.806 -4615.7998 692.35901 9.2197031e-39
-368.19 -4602.8999 698.453 9.2197031e-39
-313.07199 -4602.21 695.73401 9.2197031e-39
-258.879 -4601.21 692.97699 9.2197031e-39
-234.396 -4606.1104 693.14301 9.2197031e-39
-392.901 -4598.9399 698.54602 9.2197031e-39
-338.12201 -4599.6201 696.20398 9.2197031e-39
-283.29401 -4598.2998 693.33301 9.2197031e-39
-153.502 -4652.8501 701.758 9.2197031e-39
-627.47198 -4601.1602 709.92999 9.2197031e-39
-566.59698 -4600.3301 706.90802 9.2197031e-39
-540.909 -4605.1499 706.99799 9.2197031e-39
-509.98499 -4603.8398 705.229 9.2197031e-39
-423.745 -4602.4102 700.883 9.2197031e-39
-479.19101 -4599.9297 702.77802 9.2197031e-39
-448.591 -4597.9199 700.84003 9.2197031e-39
-583.39099 -4580.2002 702.367 9.2197031e-39
-268.63501 -4948.3501 785.05902 9.2197031e-39
-284.62601 -5110.6899 828.646 9.2197031e-39
-310.923 -5103.3799 827.92798 9.2197031e-39
-251.57001 -5105.8999 825.86102 9.2197031e-39
-223.405 -5108.25 825.18402 9.2197031e-39
-193.298 -5109.0498 824.01099 9.2197031e-39
-184.72701 -5158.2998 836.61499 9.2197031e-39
-185.933 -5237.7402 857.64203 9.2197031e-39
-186.74899 -5316.0498 878.349 9.2197031e-39
-239.536 -5723.5098 988.336 9.2197031e-39
-204.009 -6159.3901 1101.76 9.2197031e-39
-258.41199 -6213.5601 1118.5601 9.2197031e-39
-302.95499 -6227.9702 1124.41 9.2197031e-39
-395.85699 -6268.7598 1139.46 9.2197031e-39
-359.75 -6282.7798 1141.5 9.2197031e-39
103.282 -7639.5298 1478.3199 9.2197031e-39
202.132 -7637.4502 1473.22 9.2197031e-39
250.496 -7633.6899 1470 9.2197031e-39
153.05901 -7628.9702 1473.24 9.2197031e-39
-89.692497 -7610.0898 1479.4301 9.2197031e-39
-139.282 -7602.8799 1479.8101 9.2197031e-39
47.056499 -7671.1099 1489.24 9.2197031e-39
-239.04401 -7600.8701 1483.87 9.2197031e-39
-187.52901 -7600.46 1481.39 9.2197031e-39
-287.19 -7596.6602 1484.98 9.2197031e-39
-384.92499 -7582.6802 1485.79 9.2197031e-39
-336.30099 -7585.8501 1484.38 9.2197031e-39
-484.91901 -7575.3901 1488.46 9.2197031e-39
-435.69101 -7577.5498 1486.77 9.2197031e-39
-1.50463 -7670.2798 1491.26 9.2197031e-39
-52.693001 -7669.52 1493.42 9.2197031e-39
-538.97601 -7580.4902 1492.3 9.2197031e-39
-584.82898 -7565.3901 1490.42 9.2197031e-39
273.95099 -7841.5801 1523.8 9.2197031e-39
