# .PCD v0.7 - Point Cloud Data file format
VERSION 0.7
FIELDS x y z rgb
SIZE 4 4 4 4
TYPE F F F F
COUNT 1 1 1 1
WIDTH 274
HEIGHT 1
VIEWPOINT 0 0 0 1 0 0 0
POINTS 274
DATA ascii
-663.047 -3220.5701 28.789101 9.2197031e-39
-648.633 -3247.0701 36.855999 9.2197031e-39
-637.51001 -3244.05 37.765099 9.2197031e-39
909.30298 -2271.6299 39.1017 9.2197031e-39
911.78699 -2270.3799 39.17535 9.2197031e-39
909.21997 -2267.4302 38.138599 9.2197031e-39
915.27301 -2266.28 38.745651 9.2197031e-39
925.72754 -2263.145 39.532951 9.2197031e-39
930.52301 -2262.05 39.970901 9.2197031e-39
916.70996 -2257.4167 36.942799 9.2197031e-39
922.54102 -2250.54 36.222099 9.2197031e-39
913.04102 -2249.3 34.5802 9.2197031e-39
925.43201 -2244.2976 35.222725 9.2197031e-39
1139.74 -2116.8599 37.0578 9.2197031e-39
1154.1549 -2112.5376 38.1436 9.2197031e-39
1166.37 -2112.4199 39.867001 9.2197031e-39
1158.8101 -2105.6499 37.2509 9.2197031e-39
1170.9301 -2108.6401 39.663101 9.2197031e-39
2454.8999 -1281.027 36.146801 9.2197031e-39
2462.03 -1277.3159 36.328098 9.2197031e-39
-863.39502 -3435.54 48.774799 9.2197031e-39
-857.94098 -3427.4199 47.7183 9.2197031e-39
923.60498 -2291.8901 45.738701 9.2197031e-39
928.05835 -2283.1799 44.403931 9.2197031e-39
931.56348 -2285.885 45.5182 9.2197031e-39
928.14551 -2274.8398 42.526947 9.2197031e-39
931.36951 -2272.7549 42.516449 9.2197031e-39
928.23999 -2265.6802 40.466999 9.2197031e-39
931.43634 -2267.2566 41.281567 9.2197031e-39
953.72998 -2261.8999 43.2612 9.2197031e-39
1149.73 -2152.46 46.551899 9.2197031e-39
1145.52 -2149.3 45.231998 9.2197031e-39
1156.04 -2145.47 45.872101 9.2197031e-39
1168.5 -2146.2949 47.842201 9.2197031e-39
1171.0499 -2143.5132 47.578568 9.2197031e-39
1155.8199 -2131.25 42.6199 9.2197031e-39
1178.01 -2133.78 46.37125 9.2197031e-39
1182.8066 -2133.3501 46.960766 9.2197031e-39
1157.554 -2125.1899 41.496483 9.2197031e-39
1164.47 -2126.0833 42.688232 9.2197031e-39
1173.99 -2129.0251 44.718048 9.2197031e-39
1167.13 -2115.6099 40.6992 9.2197031e-39
1172.825 -2113.9951 41.148499 9.2197031e-39
1177.45 -2108.9102 40.66 9.2197031e-39
2462.9199 -1309.5905 43.763649 9.2197031e-39
-858.53699 -3474.3601 58.261799 9.2197031e-39
-722.591 -3384.51 57.386501 9.2197031e-39
2463.0701 -1341.6641 51.047798 9.2197031e-39
2518.0151 -1343.5315 59.341148 9.2197031e-39
2479.9199 -1332.687 51.4286 9.2197031e-39
2588.28 -1339.0139 68.382103 9.2197031e-39
2597.6001 -1333.45 68.457703 9.2197031e-39
2654.4299 -1338.702 77.7854 9.2197031e-39
2662.05 -1334.2639 77.872704 9.2197031e-39
2728.1499 -1336.906 87.9384 9.2197031e-39
2736.74 -1332.224 88.108597 9.2197031e-39
-607.29999 -4278.7402 276.40399 9.2197031e-39
-594.20099 -4330.4297 289.98499 9.2197031e-39
-602.16302 -4347.6499 292.74399 9.2197031e-39
1005.83 -3357.24 298.77051 9.2197031e-39
-605.49103 -4424.54 309.67999 9.2197031e-39
1026.895 -3357.77 301.90698 9.2197031e-39
-604.388 -4429.8398 311.039 9.2197031e-39
1877.3999 -2896.22 319.20251 9.2197031e-39
2068.8401 -2777.5 319.73801 9.2197031e-39
2078.8401 -2758.5549 316.88049 9.2197031e-39
2078.0601 -2733.76 311.15201 9.2197031e-39
2082.53 -2736.21 312.349 9.2197031e-39
2100.7202 -2721.625 311.64948 9.2197031e-39
1048.41 -3443.8799 324.48999 9.2197031e-39
1844.1799 -2947.9199 326.15302 9.2197031e-39
1857.39 -2932.1699 324.478 9.2197031e-39
1863.53 -2938.4399 326.77802 9.2197031e-39
1873.92 -2920.3 324.15701 9.2197031e-39
1874.14 -2919.95 324.10999 9.2197031e-39
2069.8 -2778.1899 320.03201 9.2197031e-39
2180.98 -2737.4102 326.72 9.2197031e-39
-655.92102 -4586.9399 339.233 9.2197031e-39
1809.26 -3030.9399 339.952 9.2197031e-39
1825.425 -3017.0249 339.11548 9.2197031e-39
1847.8199 -2980.52 334.05701 9.2197031e-39
1845.42 -2977.3899 333.004 9.2197031e-39
2074.7051 -2858.76 338.979 9.2197031e-39
2087.3501 -2840.1299 336.57199 9.2197031e-39
2084.1001 -2838.3201 335.69601 9.2197031e-39
2086.8301 -2813.7251 330.51801 9.2197031e-39
2197.3799 -2745.4302 330.88599 9.2197031e-39
2233.3149 -2736.8701 334.09448 9.2197031e-39
2264.9199 -2725.25 335.98801 9.2197031e-39
2246.8601 -2717.0601 331.54901 9.2197031e-39
-681.099 -4615.8301 342.17001 9.2197031e-39
-613.95801 -4607.2197 349.836 9.2197031e-39
-605.414 -4601.8501 349.84299 9.2197031e-39
1794.73 -3078.96 348.746 9.2197031e-39
1810.5601 -3064.3999 347.715 9.2197031e-39
1807.27 -3059.5601 346.147 9.2197031e-39
1813.62 -3034.79 341.44901 9.2197031e-39
1849.02 -3011.5901 341.26501 9.2197031e-39
1854.8199 -3016.7 343.25299 9.2197031e-39
2066.5801 -2908.23 349.017 9.2197031e-39
2069.76 -2882.3701 343.61801 9.2197031e-39
2071.3201 -2883.79 344.16199 9.2197031e-39
-555.685 -4609.5703 358.715 9.2197031e-39
-547.82098 -4604.8999 358.78299 9.2197031e-39
1052.96 -3588.74 357.94501 9.2197031e-39
1793.26 -3110.03 355.57001 9.2197031e-39
1788.38 -3105.28 353.79599 9.2197031e-39
1799.03 -3082.9099 350.25601 9.2197031e-39
1993.6 -2966.51 351.763 9.2197031e-39
2047 -2950.8301 355.86099 9.2197031e-39
2050.24 -2952.8101 356.77399 9.2197031e-39
2064.4751 -2934.8701 354.74951 9.2197031e-39
2074.5701 -2913.51 351.35901 9.2197031e-39
-498.29501 -4611.5 367.37299 9.2197031e-39
-490.035 -4605.8604 367.27899 9.2197031e-39
974.11499 -3682.1001 367.79501 9.2197031e-39
2040.88 -3005 367.25299 9.2197031e-39
2050.3101 -2982.6799 363.54749 9.2197031e-39
-440.75 -4611.3604 375.58301 9.2197031e-39
-432.63501 -4605.5898 375.43799 9.2197031e-39
1824.1801 -3186.5 377.315 9.2197031e-39
1816.54 -3175.3 373.68399 9.2197031e-39
-383.616 -4610 383.45599 9.2197031e-39
-375.15399 -4603.2402 383.138 9.2197031e-39
-322.58701 -4599.6104 389.84601 9.2197031e-39
-315.259 -4594.4502 389.72699 9.2197031e-39
-251.57401 -4567.77 392.806 9.2197031e-39
-244.873 -4563.3604 392.767 9.2197031e-39
-219.14 -4615.3701 408.23099 9.2197031e-39
-218.099 -4604.8604 406 9.2197031e-39
965.40802 -3855.1299 405.73001 9.2197031e-39
1115.14 -3810.1101 416.98199 9.2197031e-39
1112 -3794 412.884 9.2197031e-39
1170.61 -3773.3301 416.59799 9.2197031e-39
1143.415 -3811.5801 421.36401 9.2197031e-39
1203.53 -3811.3401 429.92001 9.2197031e-39
1201.04 -3808.9199 429.01599 9.2197031e-39
1170.12 -3793.1699 421.021 9.2197031e-39
1233.6801 -3814.8999 435.043 9.2197031e-39
1230.09 -3803.8201 432.022 9.2197031e-39
1584.6 -3658.53 449.89499 9.2197031e-39
-284.229 -4846.9502 451.35001 9.2197031e-39
1619.21 -3672.8899 458.10599 9.2197031e-39
1621.15 -3673.1201 458.43301 9.2197031e-39
1586.71 -3669.1599 452.60599 9.2197031e-39
1649.09 -3668.8101 461.45999 9.2197031e-39
1651.38 -3669.9099 462.03601 9.2197031e-39
1679.8101 -3665.9299 465.20801 9.2197031e-39
1682.48 -3667.8899 466.034 9.2197031e-39
2001.16 -3458.47 464.254 9.2197031e-39
1715.405 -3670.8901 471.4285 9.2197031e-39
1746.0701 -3665.855 474.68152 9.2197031e-39
1780.54 -3665.9099 479.63101 9.2197031e-39
1775.66 -3659.73 477.53299 9.2197031e-39
2030.99 -3500.1001 477.95499 9.2197031e-39
1097.1801 -4132.5898 487.43701 9.2197031e-39
1599.2 -3791.6399 482.13 9.2197031e-39
1811.625 -3661.7051 483.13 9.2197031e-39
1846.97 -3661.21 488.08099 9.2197031e-39
1841.91 -3655.1799 485.991 9.2197031e-39
-406.20001 -5105.8101 492.50201 9.2197031e-39
1590.74 -3864.5701 497.43399 9.2197031e-39
1587.6801 -3849.1799 493.51199 9.2197031e-39
1881.9 -3660.3401 492.88699 9.2197031e-39
1916.28 -3660.3201 497.80801 9.2197031e-39
1921.54 -3666.1899 499.888 9.2197031e-39
1877.7 -3656.0701 491.319 9.2197031e-39
1946.66 -3649.74 499.76199 9.2197031e-39
3366.4299 -2715.1099 491.46002 9.2197031e-39
-351.01199 -5110.54 501.478 9.2197031e-39
-344.65601 -5106.9199 501.569 9.2197031e-39
-279.41299 -5097.7798 508.84399 9.2197031e-39
1543.52 -3924.99 504.353 9.2197031e-39
1953.02 -3657.1599 502.353 9.2197031e-39
1985.175 -3649.9399 505.32449 9.2197031e-39
-289.289 -5109.6299 510.11099 9.2197031e-39
1098.58 -4249.8501 514.19299 9.2197031e-39
1587.5699 -3955.55 517.58301 9.2197031e-39
2027.1699 -3655.29 512.55054 9.2197031e-39
2067.4751 -3656.47 518.59003 9.2197031e-39
3551.1299 -2712.4102 517.30402 9.2197031e-39
-250.08299 -5159.3198 526.97998 9.2197031e-39
688.71802 -4551.0098 523.68799 9.2197031e-39
1590.8199 -3972.8999 521.97601 9.2197031e-39
1650.84 -3932.3701 521.396 9.2197031e-39
2099.6499 -3646.1699 520.86603 9.2197031e-39
2101.9299 -3646.9099 521.35901 9.2197031e-39
3615.1299 -2725.45 529.42401 9.2197031e-39
-260.56601 -5194.6401 533.47601 9.2197031e-39
679.052 -4595.73 532.42902 9.2197031e-39
726.95898 -4560.1899 531.242 9.2197031e-39
730.56201 -4557.1396 531.06799 9.2197031e-39
1574.99 -4040 534.90503 9.2197031e-39
767.99402 -4575.3604 540.55603 9.2197031e-39
771.00403 -4577.1396 541.39001 9.2197031e-39
812.07947 -4579.0146 547.698 9.2197031e-39
3597.6599 -2816.3899 547.51398 9.2197031e-39
616.10797 -4736.7998 555.362 9.2197031e-39
854.72498 -4581.0449 554.2655 9.2197031e-39
899.40399 -4574.3999 559.15997 9.2197031e-39
1568.8199 -4141.96 557.11102 9.2197031e-39
-259.83099 -5343.79 567.35901 9.2197031e-39
-250.78999 -5310.0898 561.02197 9.2197031e-39
895.91498 -4581.5 560.26898 9.2197031e-39
1571 -4158.5601 561.18298 9.2197031e-39
-249.37601 -5468.96 597.20099 9.2197031e-39
-256.31799 -5499.1699 603.04797 9.2197031e-39
1370.84 -4566.0801 624.79797 9.2197031e-39
1366.6 -4556.1201 621.93597 9.2197031e-39
1605.1899 -4433.7598 628.40002 9.2197031e-39
-248.48199 -5644.2798 637.03003 9.2197031e-39
1413.345 -4566.5049 630.98352 9.2197031e-39
1457.635 -4567.2803 637.50146 9.2197031e-39
1609.1899 -4459.8799 634.88898 9.2197031e-39
-255.134 -5675.5698 643.164 9.2197031e-39
1501.73 -4565.3447 643.38098 9.2197031e-39
1545.15 -4565.3701 649.60498 9.2197031e-39
1581.49 -4521.8501 644.95447 9.2197031e-39
4072.8 -2937.4399 642.98102 9.2197031e-39
5757.9199 -1864.79 641.42902 9.2197031e-39
5779.6099 -1861.3 643.74597 9.2197031e-39
1548.38 -4567.48 650.54401 9.2197031e-39
4073.0649 -2993.835 655.78949 9.2197031e-39
4339.3398 -2822.5 655.12799 9.2197031e-39
4368.98 -2826.98 660.388 9.2197031e-39
5778.7598 -1943.0601 662.13898 9.2197031e-39
5796.6099 -1944.34 664.98499 9.2197031e-39
-255.175 -5873.21 687.914 9.2197031e-39
-250.80901 -5846.4102 682.47302 9.2197031e-39
4044.1599 -3159.8101 689.23401 9.2197031e-39
5844.8101 -2022.71 689.63501 9.2197031e-39
4018.9099 -3210.1599 697.021 9.2197031e-39
4020.8799 -3209.3799 697.125 9.2197031e-39
4052.6001 -3161.1399 690.745 9.2197031e-39
4214.4902 -3092.4448 698.37695 9.2197031e-39
5853.6802 -2024.63 691.341 9.2197031e-39
4196.3398 -3147.7749 708.30701 9.2197031e-39
4050.8301 -3279.8301 717.37 9.2197031e-39
5927.21 -2104.4102 719.94 9.2197031e-39
-244.80701 -6044.73 728.24298 9.2197031e-39
5943.9199 -2106.48 722.802 9.2197031e-39
-254.408 -6089.4399 736.992 9.2197031e-39
7065.96 -1465.5591 738.36902 9.2197031e-39
7263.6899 -1445.798 762.21399 9.2197031e-39
-249.00999 -6298.29 785.06 9.2197031e-39
-257.07999 -6341.3198 793.64899 9.2197031e-39
7338.9902 -1542.8879 794.98602 9.2197031e-39
7347.2002 -1545.411 796.73401 9.2197031e-39
7337.9702 -1655.1699 820.26801 9.2197031e-39
7348.6299 -1650.96 820.841 9.2197031e-39
-543.44098 -7593.8999 1036.29 9.2197031e-39
-448.452 -7607.73 1053.03 9.2197031e-39
-440.14899 -7599.96 1052.45 9.2197031e-39
-345.17401 -7612.0303 1068.7949 9.2197031e-39
5575.04 -3843.1899 1063.26 9.2197031e-39
-250.078 -7622.4502 1084.77 9.2197031e-39
-242.57401 -7616.3501 1084.47 9.2197031e-39
5573.1401 -3934.1299 1083.58 9.2197031e-39
5570.27 -3929.96 1082.22 9.2197031e-39
-149.963 -7622.3799 1099.09 9.2197031e-39
-144.466 -7624.8101 1100.4301 9.2197031e-39
5576.605 -4026.98 1105.105 9.2197031e-39
-46.149101 -7630.5801 1115.8199 9.2197031e-39
-51.843601 -7629.1899 1114.6899 9.2197031e-39
46.265202 -7634.29 1129.9 9.2197031e-39
5584.4399 -4124.855 1128.385 9.2197031e-39
51.776901 -7636.5601 1131.2 9.2197031e-39
143.55099 -7642.5098 1145.6899 9.2197031e-39
7272.1699 -3290.28 1181.12 9.2197031e-39
7274.2798 -3286.8899 1180.66 9.2197031e-39
7654.1499 -3240.3101 1224.52 9.2197031e-39
7897.2002 -3153.3 1239.63 9.2197031e-39
7767.0498 -3254.47 1243.9 9.2197031e-39
7904.9302 -3158.5901 1241.9301 9.2197031e-39
