# .PCD v0.7 - Point Cloud Data file format
VERSION 0.7
FIELDS x y z rgb
SIZE 4 4 4 4
TYPE F F F F
COUNT 1 1 1 1
WIDTH 301
HEIGHT 1
VIEWPOINT 0 0 0 1 0 0 0
POINTS 301
DATA ascii
-766.34802 -3383.04 33.2327 9.2197031e-39
-687.35602 -3339.46 37.063801 9.2197031e-39
836.83698 -2157.2966 38.973202 9.2197031e-39
841.90399 -2154.8232 39.287003 9.2197031e-39
842.12 -2145.845 37.426804 9.2197031e-39
856.09668 -2145.8567 39.735168 9.2197031e-39
845.54236 -2133.2539 35.332958 9.2197031e-39
851.85303 -2132.9648 36.313202 9.2197031e-39
1067.3876 -1972.9775 38.098724 9.2197031e-39
1075.53 -1964.29 37.607899 9.2197031e-39
1080.1801 -1960.88 37.6562 9.2197031e-39
2387.96 -933.15198 36.460701 9.2197031e-39
2384.5801 -917.34497 32.565498 9.2197031e-39
-731.60303 -3421.4199 47.067902 9.2197031e-39
-681.328 -3361.3601 42.6824 9.2197031e-39
856.46729 -2171.6167 45.234936 9.2197031e-39
857.67102 -2164.4849 43.927601 9.2197031e-39
862.26501 -2169.7 45.7864 9.2197031e-39
857.06653 -2155.5901 41.949677 9.2197031e-39
865.65552 -2156.8398 43.63205 9.2197031e-39
875.72998 -2153.4399 44.5755 9.2197031e-39
856.02197 -2149.1899 40.426399 9.2197031e-39
860.987 -2148.6899 41.140251 9.2197031e-39
1065.29 -2012.84 46.168999 9.2197031e-39
1077.6068 -2006.2999 46.820698 9.2197031e-39
1085.12 -2005.0767 47.801434 9.2197031e-39
1068.3 -1991.36 42.129002 9.2197031e-39
1079.13 -1990.1801 43.668201 9.2197031e-39
1088.5449 -1995.475 46.340549 9.2197031e-39
1094.0599 -1992.6025 46.643097 9.2197031e-39
1101.16 -1993.3101 47.963299 9.2197031e-39
1069.35 -1985.97 41.1656 9.2197031e-39
1073.7433 -1985.3184 41.753231 9.2197031e-39
1086.25 -1988.2051 44.426651 9.2197031e-39
1094.88 -1986.84 45.561501 9.2197031e-39
1206.66 -1914.12 48.653801 9.2197031e-39
1225.5 -1903.92 49.608299 9.2197031e-39
2389.3201 -990.07996 48.7047 9.2197031e-39
2385.52 -973.13904 44.500099 9.2197031e-39
2386.5801 -954.41901 40.722301 9.2197031e-39
-730.86298 -3468.8899 57.211899 9.2197031e-39
-724.71399 -3443.8201 52.933701 9.2197031e-39
1331.02 -1845.55 54.695301 9.2197031e-39
1368.59 -1823.79 56.299301 9.2197031e-39
1383.38 -1809.61 55.7467 9.2197031e-39
1416.77 -1788.63 56.8269 9.2197031e-39
2389.6201 -1026.694 56.484001 9.2197031e-39
2395.9399 -1002.851 52.492901 9.2197031e-39
2391.6399 -1077.9871 67.645401 9.2197031e-39
2390.73 -1061.9141 64.102402 9.2197031e-39
2399.1699 -1037.178 60.2719 9.2197031e-39
2411.7 -1118.303 79.467102 9.2197031e-39
2399.96 -1107.473 75.243103 9.2197031e-39
2395.22 -1094.163 71.652 9.2197031e-39
2409.3701 -1135.936 82.805496 9.2197031e-39
970.92102 -3316.51 305.83099 9.2197031e-39
-615.47198 -4580.54 310.944 9.2197031e-39
-594.79401 -4588.21 315.97601 9.2197031e-39
980.73901 -3336.8799 311.75201 9.2197031e-39
994.15302 -3336.6299 313.91299 9.2197031e-39
1003.53 -3334.3301 314.974 9.2197031e-39
1016.27 -3322.1699 314.509 9.2197031e-39
-561.31702 -4588.5801 321.578 9.2197031e-39
-533.09998 -4582.8896 325.03201 9.2197031e-39
-500.40302 -4583.4199 330.53799 9.2197031e-39
-476.85001 -4584.9102 334.73999 9.2197031e-39
-442.92599 -4582.1699 339.758 9.2197031e-39
3523.54 -1456.277 334.272 9.2197031e-39
-419.50601 -4583.1299 343.82501 9.2197031e-39
-385.41 -4578.8301 348.543 9.2197031e-39
959.78802 -3533.6699 349.84201 9.2197031e-39
-363.04999 -4581.0303 352.698 9.2197031e-39
-332.83899 -4583.1602 358.13101 9.2197031e-39
-300.42499 -4564.3999 359.51999 9.2197031e-39
2059.5601 -2719.5601 359.42499 9.2197031e-39
2057.49 -2704.9302 355.99399 9.2197031e-39
2073.6399 -2700.76 357.78 9.2197031e-39
2064.6101 -2682.28 352.388 9.2197031e-39
-249.746 -4569.75 369.01001 9.2197031e-39
-261.479 -4547.0898 362.29001 9.2197031e-39
1847.75 -2919.5901 366.70801 9.2197031e-39
1851.89 -2907.0701 364.74899 9.2197031e-39
1855.15 -2895.3799 362.81699 9.2197031e-39
1870.35 -2893.3701 364.90302 9.2197031e-39
1882.0601 -2889.3799 365.98901 9.2197031e-39
2063.2 -2749.5 366.34698 9.2197031e-39
2055.6899 -2731.1299 361.229 9.2197031e-39
2108.5901 -2693.5698 362.02701 9.2197031e-39
2135.1101 -2694.6802 366.63901 9.2197031e-39
-230.795 -4594.0898 377.276 9.2197031e-39
1042.64 -3592.5701 375.94601 9.2197031e-39
1781.39 -3016.6699 376.254 9.2197031e-39
1776.14 -2991.8799 370.15399 9.2197031e-39
1793.8 -2995.6899 373.87299 9.2197031e-39
1801 -2985.4099 372.88901 9.2197031e-39
1812.9399 -2982.4299 374.23001 9.2197031e-39
1826.5699 -2979.0701 375.76999 9.2197031e-39
1827.89 -2964.6101 372.936 9.2197031e-39
1837.37 -2956.8999 372.87399 9.2197031e-39
1842.49 -2946.5901 371.54001 9.2197031e-39
1853.86 -2940.8 372.194 9.2197031e-39
1921.16 -2908.21 376.418 9.2197031e-39
2035.52 -2832.3799 379.276 9.2197031e-39
2042.9 -2822.3601 378.379 9.2197031e-39
2049.9199 -2812.9099 377.54401 9.2197031e-39
2055.51 -2801.7 376.09799 9.2197031e-39
2065.6001 -2794.3 376.20099 9.2197031e-39
2068.55 -2781.3999 373.96399 9.2197031e-39
2068.77 -2767.5 371.065 9.2197031e-39
2177.03 -2703.28 375.371 9.2197031e-39
2196.1399 -2699.3799 377.70001 9.2197031e-39
3770.0901 -1450.725 373.78 9.2197031e-39
1770.8199 -3077.9099 387.43799 9.2197031e-39
1764.37 -3049.6399 380.40701 9.2197031e-39
1775.9 -3046.47 381.638 9.2197031e-39
1782.46 -3034.73 380.24399 9.2197031e-39
2035.77 -2877.8401 388.91599 9.2197031e-39
2036.9301 -2848.01 382.80899 9.2197031e-39
2215.99 -2695.26 380.10501 9.2197031e-39
3812.4199 -1467.504 384.30701 9.2197031e-39
-247.41901 -4680.8101 392.84201 9.2197031e-39
1774.01 -3099.99 392.62799 9.2197031e-39
2014.11 -2924.04 395.09698 9.2197031e-39
2016.61 -2910.6399 392.67999 9.2197031e-39
2035.4 -2909.1201 395.45901 9.2197031e-39
2030.86 -2890.25 390.72699 9.2197031e-39
2050.1499 -2873.74 390.42401 9.2197031e-39
2266.4299 -2706.53 390.80701 9.2197031e-39
2011.04 -2971.76 404.664 9.2197031e-39
2011.03 -2954.23 400.96201 9.2197031e-39
2019.01 -2945.1399 400.35901 9.2197031e-39
3866.29 -1508.536 401.858 9.2197031e-39
1085.66 -3784.28 423.51999 9.2197031e-39
1103.46 -3784.8401 426.57599 9.2197031e-39
1116.52 -3781.53 428.03101 9.2197031e-39
1160.02 -3737.6299 425.94 9.2197031e-39
1149.49 -3796.6499 436.66199 9.2197031e-39
1134.21 -3780.8401 430.80301 9.2197031e-39
1179.3199 -3783.1201 438.73001 9.2197031e-39
1195.9399 -3774.1299 439.57199 9.2197031e-39
1851.89 -3222.95 431.436 9.2197031e-39
949.48798 -3988.6599 444.20001 9.2197031e-39
1210.1 -3777.78 442.67999 9.2197031e-39
-397.67499 -5091.8999 454.84 9.2197031e-39
-371.57001 -5093.8599 459.56 9.2197031e-39
-333.41901 -5086.4199 464.284 9.2197031e-39
-307.077 -5086.8999 468.73199 9.2197031e-39
-270.061 -5080.5698 473.504 9.2197031e-39
1561.8199 -3650.45 473.82999 9.2197031e-39
1610.23 -3641.5901 479.94699 9.2197031e-39
1575.9 -3639.3601 473.81201 9.2197031e-39
1590.78 -3639.49 476.29501 9.2197031e-39
-276.37201 -5163.54 489.979 9.2197031e-39
1625.27 -3641.3799 482.38501 9.2197031e-39
1643.71 -3640.4399 485.229 9.2197031e-39
1657.29 -3636.3799 486.61301 9.2197031e-39
1959.46 -3386.28 483.66901 9.2197031e-39
1095.03 -4097.9199 491.28299 9.2197031e-39
1565.72 -3752.02 495.918 9.2197031e-39
1679.8 -3643.9099 491.91599 9.2197031e-39
1691.85 -3636.02 492.237 9.2197031e-39
1712.92 -3639.6201 496.47501 9.2197031e-39
-278.061 -5259.54 509.96899 9.2197031e-39
1566.01 -3796.3899 505.33301 9.2197031e-39
1730.9 -3643.6201 500.28699 9.2197031e-39
1747.89 -3638.1299 501.92999 9.2197031e-39
1763.87 -3637.4399 504.422 9.2197031e-39
1784.87 -3639.3401 508.28799 9.2197031e-39
2003.1801 -3473.01 509.19199 9.2197031e-39
660.409 -4548.3101 514.65802 9.2197031e-39
686.75201 -4536.9399 516.60199 9.2197031e-39
705.74701 -4537.71 519.901 9.2197031e-39
1566.54 -3855.22 517.841 9.2197031e-39
1801.01 -3638.28 510.72699 9.2197031e-39
1816.61 -3629.5801 511.46301 9.2197031e-39
1832.8101 -3628.1899 513.84302 9.2197031e-39
1846.85 -3616.6899 513.73297 9.2197031e-39
1865.53 -3619.1599 517.33502 9.2197031e-39
1882.88 -3613.22 518.94397 9.2197031e-39
1896.22 -3606.1899 519.66199 9.2197031e-39
-274.69601 -5324.4102 524.21899 9.2197031e-39
729.12299 -4556.21 527.66302 9.2197031e-39
1527.51 -3896.5801 520.13397 9.2197031e-39
1564.4 -3897.1101 526.33099 9.2197031e-39
1621.91 -3850.6299 526.00702 9.2197031e-39
1921.13 -3612.26 525.05402 9.2197031e-39
593.427 -4719.8701 539.82501 9.2197031e-39
748.53302 -4553.71 530.33698 9.2197031e-39
792.63202 -4556.2402 538.14801 9.2197031e-39
774.099 -4546.3701 533.00702 9.2197031e-39
1562.72 -3955.3701 538.35303 9.2197031e-39
1943.3101 -3618.78 530.08899 9.2197031e-39
1960.21 -3611.27 531.29102 9.2197031e-39
1982.15 -3616.47 536.01001 9.2197031e-39
1997.97 -3606.99 536.61798 9.2197031e-39
-275.74799 -5427.3501 545.77802 9.2197031e-39
622.58099 -4701.27 540.70898 9.2197031e-39
817.60999 -4557.2998 542.49298 9.2197031e-39
836.896 -4556.04 545.40997 9.2197031e-39
861.83502 -4557.6699 549.86798 9.2197031e-39
1293.1 -4178.8604 541.052 9.2197031e-39
1544.58 -4019.8201 548.96802 9.2197031e-39
2020.7 -3612.5 541.53302 9.2197031e-39
2043.13 -3612.1699 545.16302 9.2197031e-39
2059.48 -3607.6699 546.91199 9.2197031e-39
881.13501 -4556.0601 552.71301 9.2197031e-39
906.24298 -4547.4902 555.04602 9.2197031e-39
925.57898 -4531.8301 554.92999 9.2197031e-39
1538.2 -4056.4099 555.64099 9.2197031e-39
2087.7 -3614.6899 553.04901 9.2197031e-39
3345.5 -2663.5 559.76801 9.2197031e-39
-270.996 -5495.2798 560.90399 9.2197031e-39
3338.05 -2683.6602 562.79498 9.2197031e-39
1545.28 -4158.0498 578.26801 9.2197031e-39
3414.9299 -2657.8701 570.034 9.2197031e-39
-271.078 -5605.1802 584.09302 9.2197031e-39
3403.3999 -2724.99 582.302 9.2197031e-39
3484.0601 -2651.9302 580.18597 9.2197031e-39
-268.50299 -5687.4199 601.88 9.2197031e-39
1561.66 -4283.7803 607.51398 9.2197031e-39
-273.25 -5823.1499 629.75201 9.2197031e-39
1372.3101 -4542.3203 630.85498 9.2197031e-39
1417.98 -4540.73 638.05402 9.2197031e-39
1396.91 -4537.0601 633.80499 9.2197031e-39
1464.1801 -4540.2197 645.56897 9.2197031e-39
1442.9301 -4536.96 641.375 9.2197031e-39
1489.14 -4536.02 648.79999 9.2197031e-39
1578 -4435.98 642.341 9.2197031e-39
-271.436 -5917.98 650.073 9.2197031e-39
1510.34 -4537.9102 652.69897 9.2197031e-39
1535.96 -4536.1201 656.54901 9.2197031e-39
1547.38 -4497.04 650.18103 9.2197031e-39
1570.76 -4487.3701 651.99701 9.2197031e-39
3717.6399 -2838.0601 658.02301 9.2197031e-39
-267.81201 -6041.02 676.646 9.2197031e-39
-275.827 -6180.6899 704.81201 9.2197031e-39
3944.8601 -2932.96 715.55103 9.2197031e-39
-256.40201 -6264.2798 725.664 9.2197031e-39
4287.4702 -2783.29 740.48102 9.2197031e-39
4306.3901 -2817.51 750.828 9.2197031e-39
4011.5 -3132.9099 768.76001 9.2197031e-39
3992.75 -3187.51 777.19202 9.2197031e-39
4012.9299 -3162.97 775.34003 9.2197031e-39
4046.8999 -3113.5 770.50098 9.2197031e-39
4106.0601 -3103.8899 778.23499 9.2197031e-39
4162.4502 -3059.8701 778.245 9.2197031e-39
4180.6899 -3033.1201 775.60498 9.2197031e-39
-316.03101 -6606.1699 788.005 9.2197031e-39
4005.48 -3222.1599 786.60901 9.2197031e-39
4171.9902 -3093.1799 786.85101 9.2197031e-39
5782.5698 -1917.55 804.39099 9.2197031e-39
5819.8101 -1957.1899 818.90698 9.2197031e-39
5918.1602 -1869.46 816.612 9.2197031e-39
6911.7998 -1108.788 819.96503 9.2197031e-39
5853.21 -2000.67 833.59497 9.2197031e-39
7095.7998 -1136.214 856.11401 9.2197031e-39
7296.8599 -1159.822 894.27301 9.2197031e-39
7302.7202 -1216.9771 907.30701 9.2197031e-39
7299.8398 -1270.36 918.10303 9.2197031e-39
7303.6699 -1327.7009 930.841 9.2197031e-39
7299.8799 -1380.9651 941.46002 9.2197031e-39
7302.6602 -1438.3359 954.03198 9.2197031e-39
-531.18201 -7590.7998 960.38397 9.2197031e-39
-485.017 -7589.8799 967.80701 9.2197031e-39
6982.29 -1727.97 962.32001 9.2197031e-39
7298.9502 -1491.381 964.617 9.2197031e-39
-430.091 -7596.0098 978.16302 9.2197031e-39
7302.6602 -1548.62 977.315 9.2197031e-39
-384.02701 -7594.2402 985.39001 9.2197031e-39
7305.9302 -1601.006 988.914 9.2197031e-39
-328.92899 -7598.4399 995.36798 9.2197031e-39
7297.75 -1659.0281 999.81403 9.2197031e-39
-285.117 -7605.4502 1004.08 9.2197031e-39
-229.61301 -7606.7798 1013.51 9.2197031e-39
-185.709 -7612.9902 1022.07 9.2197031e-39
7290.8999 -1769.24 1021.95 9.2197031e-39
-130.276 -7613.3599 1031.29 9.2197031e-39
-84.504097 -7609.0898 1037.95 9.2197031e-39
-29.5896 -7610.4399 1047.29 9.2197031e-39
13.9054 -7617.96 1056.0601 9.2197031e-39
81.337997 -7538.6802 1050.4399 9.2197031e-39
113.734 -7616.3501 1072.1899 9.2197031e-39
161.839 -7663.52 1090.08 9.2197031e-39
4889.5898 -3981.54 1092.8101 9.2197031e-39
5556.1401 -3869.7 1179.17 9.2197031e-39
5559.0698 -3915.97 1189.42 9.2197031e-39
5554.6802 -3964.5901 1198.97 9.2197031e-39
5562.0601 -4013.48 1210.51 9.2197031e-39
5557.52 -4062.8301 1220.17 9.2197031e-39
5565.6802 -4112.9697 1232.11 9.2197031e-39
5576.8398 -4170.3999 1246.0699 9.2197031e-39
5577.7402 -4218.25 1256.3199 9.2197031e-39
5577.1001 -4271.3501 1267.4301 9.2197031e-39
7243.1602 -3209.26 1318.1 9.2197031e-39
7242.5298 -3263.4399 1329.4301 9.2197031e-39
7332.4502 -3165.05 1323.49 9.2197031e-39
7236.1802 -3322.55 1340.86 9.2197031e-39
7233.6201 -3376.6499 1351.86 9.2197031e-39
7868.4199 -3075.8701 1393.1 9.2197031e-39
7779.2798 -3185.1899 1401.47 9.2197031e-39
7866.8101 -3134.3899 1405.1899 9.2197031e-39
