# .PCD v0.7 - Point Cloud Data file format
VERSION 0.7
FIELDS x y z rgb
SIZE 4 4 4 4
TYPE F F F F
COUNT 1 1 1 1
WIDTH 297
HEIGHT 1
VIEWPOINT 0 0 0 1 0 0 0
POINTS 297
DATA ascii
120.741 -7696 32.352402 9.2197031e-39
145.2915 -865.05298 38.930851 9.2197031e-39
144.95 -855.30664 38.839298 9.2197031e-39
134.17567 -844.3277 35.952232 9.2197031e-39
134.56479 -838.01904 36.056519 9.2197031e-39
145.6875 -836.06952 39.03685 9.2197031e-39
146.60901 -823.37073 39.283775 9.2197031e-39
127.64 -816.78198 34.201 9.2197031e-39
147.586 -592.53601 39.545502 9.2197031e-39
149.01601 -582.59399 39.928699 9.2197031e-39
148.927 -578.45398 39.9049 9.2197031e-39
128.63 -232.07101 34.466301 9.2197031e-39
132.625 -230.16101 35.536701 9.2197031e-39
144.399 -232.64099 38.6917 9.2197031e-39
148.57401 -228.88 39.8102 9.2197031e-39
122.785 -216.009 32.900101 9.2197031e-39
137.05701 -216.29501 36.724201 9.2197031e-39
141.091 -217.45999 37.805199 9.2197031e-39
179.787 -7704.73 48.173801 9.2197031e-39
166.1266 -844.54315 44.513481 9.2197031e-39
171.1555 -845.41553 45.861 9.2197031e-39
157.5815 -835.21198 42.223846 9.2197031e-39
149.37801 -823.49097 40.0257 9.2197031e-39
153.14301 -825.06726 41.034576 9.2197031e-39
162.687 -816.14697 43.591801 9.2197031e-39
153.51651 -581.79248 41.134552 9.2197031e-39
154.64467 -577.60333 41.436871 9.2197031e-39
173.77901 -576.67102 46.563999 9.2197031e-39
151.161 -563.58801 40.503399 9.2197031e-39
165.44261 -562.60059 44.330139 9.2197031e-39
175.53574 -564.66522 47.034653 9.2197031e-39
182.257 -563.45929 48.835529 9.2197031e-39
151.89101 -554.53198 40.6992 9.2197031e-39
169.106 -558.604 45.311699 9.2197031e-39
174.304 -557.40399 46.704552 9.2197031e-39
153.476 -540.56201 41.1236 9.2197031e-39
176.894 -544.51196 47.398701 9.2197031e-39
155.879 -517.08398 41.767548 9.2197031e-39
157.70599 -493.51599 42.257198 9.2197031e-39
181.481 -324.22501 48.627701 9.2197031e-39
182.39101 -297.02301 48.871601 9.2197031e-39
181.41901 -279.668 48.611099 9.2197031e-39
180.29401 -261.311 48.309502 9.2197031e-39
177.728 -251.867 47.622101 9.2197031e-39
172.5195 -247.166 46.226402 9.2197031e-39
165.879 -235.851 44.447197 9.2197031e-39
155.071 -221.8235 41.551102 9.2197031e-39
160.813 -225.811 43.089802 9.2197031e-39
196.22 -256.83701 52.5769 9.2197031e-39
239.369 -7735.9302 64.138603 9.2197031e-39
303.62701 -7930.52 81.356598 9.2197031e-39
364.466 -7925.6001 97.658401 9.2197031e-39
425.405 -7924.1201 113.987 9.2197031e-39
1206.2 935.06995 323.20001 9.2197031e-39
1228.25 937.47998 329.10901 9.2197031e-39
1260.72 1667.1001 337.80899 9.2197031e-39
1245.8 1688.1001 333.81201 9.2197031e-39
1283.59 1517.26 343.93701 9.2197031e-39
1305.51 1512.79 349.81201 9.2197031e-39
1290.25 1577.1201 345.72198 9.2197031e-39
1271.91 1589.3701 340.806 9.2197031e-39
1275.37 1646.02 341.733 9.2197031e-39
1319.4 946.79004 353.53201 9.2197031e-39
1339.11 943.82996 358.815 9.2197031e-39
1316.39 972.82996 352.72501 9.2197031e-39
1324.77 1459 354.97 9.2197031e-39
1313.1801 1481.98 351.866 9.2197031e-39
1359.1 1476.48 364.16901 9.2197031e-39
1386.48 947.39001 371.50699 9.2197031e-39
1453.12 1507.47 389.362 9.2197031e-39
1425.65 1548.3501 382.00299 9.2197031e-39
1474.79 1265.27 395.16901 9.2197031e-39
1481.54 1511.3701 396.97601 9.2197031e-39
1460.71 1563.76 391.39499 9.2197031e-39
1519.51 -3877.5801 407.14999 9.2197031e-39
1524.22 778.56995 408.41199 9.2197031e-39
1526.27 944.70996 408.96301 9.2197031e-39
1520.83 1295.04 407.505 9.2197031e-39
1510.61 1473.9399 404.767 9.2197031e-39
1521.17 1532.54 407.59601 9.2197031e-39
1552.79 -4562.2197 416.069 9.2197031e-39
1552.37 -4462.6104 415.95599 9.2197031e-39
1554 -4372.5801 416.392 9.2197031e-39
1542.02 -4252.3203 413.18301 9.2197031e-39
1543.6 -4170.2998 413.60699 9.2197031e-39
1543.91 -4088.54 413.69 9.2197031e-39
1542.17 -4005.21 413.22299 9.2197031e-39
1536.85 -3843.98 411.797 9.2197031e-39
1536.27 -3772.3999 411.64099 9.2197031e-39
1543.45 -3654.1799 413.56699 9.2197031e-39
1550.04 655.91003 415.33099 9.2197031e-39
1555.51 685.14001 416.797 9.2197031e-39
1551.65 781.39001 415.76401 9.2197031e-39
1565.29 960.93005 419.418 9.2197031e-39
1571.37 -3647.45 421.047 9.2197031e-39
1603.29 -3648.4199 429.60101 9.2197031e-39
1602.63 755.87 429.42401 9.2197031e-39
1589.12 930.18994 425.802 9.2197031e-39
1607.84 -3856.5601 430.82001 9.2197031e-39
1633.08 -3644.6299 437.582 9.2197031e-39
1615.36 668.96997 432.83401 9.2197031e-39
1660.15 -3635.25 444.83499 9.2197031e-39
1645.47 555.60999 440.90302 9.2197031e-39
1670.46 553.48999 447.599 9.2197031e-39
1654.62 944.41003 443.354 9.2197031e-39
1695.13 -3640.47 454.20901 9.2197031e-39
1711.41 540.93994 458.57199 9.2197031e-39
1698.59 553.43994 455.13699 9.2197031e-39
1729.37 -3643.54 463.383 9.2197031e-39
1734.64 -3086.1899 464.79401 9.2197031e-39
1746.84 -3060.1201 468.06299 9.2197031e-39
1753.61 -3026.73 469.87799 9.2197031e-39
1753.63 -2984.5601 469.88199 9.2197031e-39
1731.91 534.26001 464.06299 9.2197031e-39
1726.41 646.12 462.591 9.2197031e-39
1725.79 796.18005 462.42499 9.2197031e-39
1749.41 956.94995 468.75299 9.2197031e-39
1763.3 -3645.3501 472.474 9.2197031e-39
1787.23 -3210.29 478.88599 9.2197031e-39
1773.4 -2970.52 475.181 9.2197031e-39
1778.98 547.28003 476.67599 9.2197031e-39
1760.54 939.39001 471.73401 9.2197031e-39
1794.9301 -3642.46 480.94901 9.2197031e-39
1797.1801 -2961.8501 481.55301 9.2197031e-39
1819.75 -2951.3501 487.60101 9.2197031e-39
1809.09 546.77002 484.74399 9.2197031e-39
1829.61 -3644.3701 490.24301 9.2197031e-39
1862.95 -3643.3101 499.17499 9.2197031e-39
1832.05 -2927.3 490.896 9.2197031e-39
1862.3101 -2926.52 499.004 9.2197031e-39
1838.52 545.22998 492.63101 9.2197031e-39
1897.42 -3643.5701 508.41101 9.2197031e-39
1875.22 548.35999 502.46399 9.2197031e-39
1916.03 -2954.6899 513.39899 9.2197031e-39
1926.52 560.97998 516.20898 9.2197031e-39
1941.88 -3659.46 520.32599 9.2197031e-39
1975.7 -3657.1499 529.388 9.2197031e-39
1961.04 -2970.5601 525.46002 9.2197031e-39
1954.39 -2922.6699 523.67798 9.2197031e-39
1971.16 -2903.75 528.16998 9.2197031e-39
1953.3101 920.37 523.38702 9.2197031e-39
2010.15 -3655.29 538.61902 9.2197031e-39
1992.22 -2889.95 533.81403 9.2197031e-39
1987.99 -2846.95 532.67999 9.2197031e-39
1991.66 -2813.77 533.66302 9.2197031e-39
1999.52 -2785.8201 535.771 9.2197031e-39
2013.71 -2765.1399 539.57202 9.2197031e-39
1981.7 916.60999 530.99298 9.2197031e-39
2046.34 -3655.52 548.31403 9.2197031e-39
2031.72 -2748.6799 544.396 9.2197031e-39
2045.53 -2727.77 548.09698 9.2197031e-39
2052.53 -329.33301 549.97498 9.2197031e-39
2047.4399 -312.276 548.60999 9.2197031e-39
2018.4301 600.35999 540.83698 9.2197031e-39
2088.5 -2737.1699 559.612 9.2197031e-39
2087.0701 -359.34201 559.22803 9.2197031e-39
2068.8999 -344.36899 554.36102 9.2197031e-39
2057.3501 -292.09299 551.26501 9.2197031e-39
2061.3999 -272.94901 552.349 9.2197031e-39
2073.75 -251.754 555.66101 9.2197031e-39
2087.78 -229.85199 559.41998 9.2197031e-39
2075.75 968.43005 556.19501 9.2197031e-39
2117.53 -372.58301 567.39099 9.2197031e-39
2101.5901 -207.664 563.12 9.2197031e-39
2115.1699 -185.19 566.75897 9.2197031e-39
2117.3 -165.43903 567.33002 9.2197031e-39
2134.53 -2748.76 571.94598 9.2197031e-39
2148.8799 -386.20099 575.78998 9.2197031e-39
2127.6499 -143.28003 570.10199 9.2197031e-39
2138.71 -120.62701 573.06403 9.2197031e-39
2168.6599 -402.03 581.091 9.2197031e-39
2203.1399 -2781.8899 590.33002 9.2197031e-39
2211.3201 -415.061 592.52002 9.2197031e-39
2209.97 704.62 592.15997 9.2197031e-39
2985.3301 -3465.5 799.91602 9.2197031e-39
2984.3201 -3416.55 799.64502 9.2197031e-39
2989.23 -3518.1201 800.96301 9.2197031e-39
2994.1899 -3378.53 802.289 9.2197031e-39
2995.6699 -3333.25 802.68799 9.2197031e-39
3000.27 -3291.4299 803.91803 9.2197031e-39
3097.6499 -3332.21 830.013 9.2197031e-39
3113.1799 -700 834.17297 9.2197031e-39
3164.26 -727.49731 847.85999 9.2197031e-39
3202.8899 -672.15363 858.21198 9.2197031e-39
3200.6101 -644.3443 857.59998 9.2197031e-39
3289.8201 -614.08728 881.505 9.2197031e-39
3468.4099 -1003.215 929.35699 9.2197031e-39
3456.3899 -971.78198 926.13702 9.2197031e-39
3479.75 -1096.2109 932.396 9.2197031e-39
3473.3501 -1064.804 930.68201 9.2197031e-39
3472.46 -1034.118 930.44202 9.2197031e-39
3516.3701 -945.82202 942.20898 9.2197031e-39
3569.6101 -3696.03 956.474 9.2197031e-39
3576.24 1122.77 958.24902 9.2197031e-39
3560.74 1153.92 954.09698 9.2197031e-39
3589.6599 -919.65302 961.84601 9.2197031e-39
3584.95 -354.668 960.58398 9.2197031e-39
3619.8601 950.89001 969.93799 9.2197031e-39
3605.8101 982.43994 966.17401 9.2197031e-39
3598.47 1017.3101 964.20697 9.2197031e-39
3592.55 1053.05 962.61902 9.2197031e-39
3584.55 1087.91 960.47803 9.2197031e-39
3623.3301 -382.75299 970.86798 9.2197031e-39
3649.29 813.13 977.823 9.2197031e-39
3636.3999 844.94995 974.37 9.2197031e-39
3638.3 883.43005 974.87903 9.2197031e-39
3624.8201 915.15002 971.26703 9.2197031e-39
3656.71 1246.4301 979.81097 9.2197031e-39
3713.8799 -894.95099 995.13202 9.2197031e-39
3723.71 584.37 997.76501 9.2197031e-39
3699.0901 611.85999 991.16803 9.2197031e-39
3718.76 655.77002 996.43799 9.2197031e-39
3722.5701 694.18005 997.46002 9.2197031e-39
3759.1299 560.32996 1007.26 9.2197031e-39
3748.78 817.53003 1004.48 9.2197031e-39
3799.9299 537.60999 1018.19 9.2197031e-39
3779.22 753.90002 1012.64 9.2197031e-39
3819.1799 -297.565 1023.35 9.2197031e-39
3830.05 -262.47 1026.26 9.2197031e-39
3825.26 -229.09698 1024.97 9.2197031e-39
3839.71 513.94995 1028.85 9.2197031e-39
3878.4299 489.37 1039.22 9.2197031e-39
3947.77 1496.1899 1057.8 9.2197031e-39
3983.04 -3198.5701 1067.25 9.2197031e-39
3976.3201 1467.26 1065.45 9.2197031e-39
4006.4299 -3165.1499 1073.52 9.2197031e-39
4041.96 -3139.22 1083.04 9.2197031e-39
4078.1799 -3113.3401 1092.75 9.2197031e-39
4101.7202 -3079.5 1099.05 9.2197031e-39
4164.5 -3068.5601 1115.87 9.2197031e-39
4170.3901 1672 1117.45 9.2197031e-39
4144.6299 1803.0901 1110.55 9.2197031e-39
4264.5698 -3077.99 1142.6899 9.2197031e-39
4306.48 -3965.45 1153.92 9.2197031e-39
4330.8701 2076.76 1160.45 9.2197031e-39
4379.9502 -4083.5 1173.6 9.2197031e-39
4371.8901 -3956.6499 1171.4399 9.2197031e-39
4417.1899 2079.4299 1183.58 9.2197031e-39
4444.5098 -3952.22 1190.9 9.2197031e-39
4511.8599 -3942.6499 1208.95 9.2197031e-39
4498.3701 -3160.71 1205.34 9.2197031e-39
4488.2202 2070.8101 1202.62 9.2197031e-39
4549.5 -4479.5801 1219.04 9.2197031e-39
4581.75 -3933.8201 1227.6801 9.2197031e-39
4629.2402 -4479.7002 1240.4 9.2197031e-39
4702.5 -4473.0601 1260.03 9.2197031e-39
4702.3901 2094 1260 9.2197031e-39
4750.02 2067 1272.76 9.2197031e-39
4788.9302 -4475.8501 1283.1899 9.2197031e-39
5406.48 -4460.9399 1448.66 9.2197031e-39
5504.4399 -4459.4502 1474.91 9.2197031e-39
5514.1802 -4395.77 1477.52 9.2197031e-39
5509.48 -4322.9399 1476.26 9.2197031e-39
5508.8599 -4253.7002 1476.09 9.2197031e-39
5559.7998 -3507.48 1489.74 9.2197031e-39
5558.0801 -3445.52 1489.28 9.2197031e-39
5575.6499 -3702.74 1493.99 9.2197031e-39
5568.1899 -3635.8 1491.99 9.2197031e-39
5560.8901 -3569.6699 1490.03 9.2197031e-39
5565.3198 -3388.54 1491.22 9.2197031e-39
5563.2598 -3327.4199 1490.67 9.2197031e-39
5561.4702 -3266.95 1490.1899 9.2197031e-39
5586.4302 -3219.3301 1496.88 9.2197031e-39
5756.5801 1598.3301 1542.47 9.2197031e-39
6706.3901 -819.008 1796.97 9.2197031e-39
6882.7998 -883.31702 1844.24 9.2197031e-39
6901.0801 1379.28 1849.14 9.2197031e-39
6906.27 1314.36 1850.53 9.2197031e-39
7127.8398 -3630.9199 1909.9 9.2197031e-39
7112.21 -1016.022 1905.71 9.2197031e-39
7122.3301 -953.12598 1908.42 9.2197031e-39
7123.2998 -446.83899 1908.6801 9.2197031e-39
7121.8599 -383.54099 1908.3 9.2197031e-39
7137.2598 -3858.49 1912.42 9.2197031e-39
7132.4902 -3781.3101 1911.15 9.2197031e-39
7130.54 -3705.98 1910.62 9.2197031e-39
7135.21 -3560.54 1911.87 9.2197031e-39
7134.7002 -3487.3899 1911.74 9.2197031e-39
7134.4102 -3414.8101 1911.66 9.2197031e-39
7134.3301 -3342.79 1911.64 9.2197031e-39
7131.7598 -3270.3101 1910.95 9.2197031e-39
7132.1499 -3199.3899 1911.05 9.2197031e-39
7148.1499 -1852.3 1915.34 9.2197031e-39
7148.0498 -1787.29 1915.3101 9.2197031e-39
7150.25 -1722.78 1915.9 9.2197031e-39
7148.0698 -1657.801 1915.3199 9.2197031e-39
7153.9502 -1594.0339 1916.9 9.2197031e-39
7339.8198 -3200.6799 1966.7 9.2197031e-39
7534.25 -3193.77 2018.79 9.2197031e-39
7554.9302 -296.647 2024.34 9.2197031e-39
7554.1401 -229.31601 2024.12 9.2197031e-39
7555.6699 -161.75897 2024.53 9.2197031e-39
7557.5898 -94.059998 2025.05 9.2197031e-39
7714.3599 -3178.72 2067.05 9.2197031e-39
7714.6401 -3103.5901 2067.1299 9.2197031e-39
8088.3999 -3143.3799 2167.28 9.2197031e-39
8432.7402 -3167.51 2259.55 9.2197031e-39
