# .PCD v0.7 - Point Cloud Data file format
VERSION 0.7
FIELDS x y z rgb
SIZE 4 4 4 4
TYPE F F F F
COUNT 1 1 1 1
WIDTH 303
HEIGHT 1
VIEWPOINT 0 0 0 1 0 0 0
POINTS 303
DATA ascii
1537.14 -3752.1799 32.352402 9.2197031e-39
1555.3199 -3752.55 36.9599 9.2197031e-39
984.84229 -1953.6483 39.138351 9.2197031e-39
965.93945 -1943.5125 35.149223 9.2197031e-39
973.6593 -1946.9421 36.836517 9.2197031e-39
983.56598 -1941.83 39.782799 9.2197031e-39
983.63702 -1939.48 39.993599 9.2197031e-39
961.33398 -1929.47 35.1269 9.2197031e-39
890.63904 -1682.1121 37.403198 9.2197031e-39
891.51947 -1672.877 38.385902 9.2197031e-39
884.72449 -1663.3601 37.434151 9.2197031e-39
893.539 -1664.8829 39.557331 9.2197031e-39
-20.872601 1088.26 32.352402 9.2197031e-39
4.2403002 1094.12 39.2388 9.2197031e-39
1571.9399 -3748.01 41.571602 9.2197031e-39
1588.1899 -3742.3701 46.180302 9.2197031e-39
1021.12 -1954.6899 48.305099 9.2197031e-39
985.66602 -1940.61 40.419102 9.2197031e-39
994.53571 -1940.8932 42.657932 9.2197031e-39
1003.28 -1949.42 44.187199 9.2197031e-39
985.1582 -1933.8926 40.840851 9.2197031e-39
1001.39 -1932.215 45.119148 9.2197031e-39
928.01801 -1690.556 46.243801 9.2197031e-39
925.40869 -1683.2197 46.180668 9.2197031e-39
899.31598 -1670.97 40.531101 9.2197031e-39
905.13904 -1674.8665 41.696423 9.2197031e-39
910.40399 -1670.467 43.400398 9.2197031e-39
925.99353 -1675.799 46.939003 9.2197031e-39
895.57599 -1660.293 40.453602 9.2197031e-39
914.89697 -1662.5726 45.19458 9.2197031e-39
896.78601 -1659.1689 40.854599 9.2197031e-39
916.81348 -1656.636 46.170849 9.2197031e-39
922.22833 -1656.9473 47.526398 9.2197031e-39
30.5515 1095.92 46.097599 9.2197031e-39
1607.78 -3745.99 50.8783 9.2197031e-39
1627.47 -3749.4099 55.620098 9.2197031e-39
1101.5601 -2081.3198 58.425701 9.2197031e-39
1085.6801 -2063.3 55.856499 9.2197031e-39
1076.3 -2054.0801 54.221401 9.2197031e-39
934.57202 -1645.3259 51.628799 9.2197031e-39
58.526402 1091.71 52.887699 9.2197031e-39
82.534599 1100.6899 59.748402 9.2197031e-39
1130.7 -2111.76 63.361198 9.2197031e-39
1114.25 -2094.24 60.603199 9.2197031e-39
109.565 1098.85 66.491898 9.2197031e-39
133.673 1107.38 73.341202 9.2197031e-39
158.373 1113.76 80.164703 9.2197031e-39
185.545 1110.21 86.8041 9.2197031e-39
209.11 1120.98 93.698898 9.2197031e-39
235.511 1119.86 100.341 9.2197031e-39
262.5 1115.5601 106.872 9.2197031e-39
285.20099 1130.5601 113.893 9.2197031e-39
309.517 1138.51 120.748 9.2197031e-39
1928.98 -3106.55 185.30099 9.2197031e-39
1939.71 -3097.6101 188.772 9.2197031e-39
1963.5699 -3104.79 194.26801 9.2197031e-39
1962.85 -3081.75 195.976 9.2197031e-39
1974.65 -3074.03 199.619 9.2197031e-39
1995.46 -3076.76 204.703 9.2197031e-39
2005.92 -3067.23 208.155 9.2197031e-39
1963.22 -2919.52 209.39 9.2197031e-39
2010.37 -3050.8999 210.62801 9.2197031e-39
2021.28 -3041.97 214.145 9.2197031e-39
1991.1 -2988.29 210.854 9.2197031e-39
1981.14 -2957.74 210.823 9.2197031e-39
1965.46 -2903.1101 211.30701 9.2197031e-39
1977.9399 -2897.3601 214.963 9.2197031e-39
1976.35 -2877.4399 216.194 9.2197031e-39
1992.92 -2875.6899 220.563 9.2197031e-39
2002.4 -2866.8401 223.70599 9.2197031e-39
2072.23 -2915.25 237.545 9.2197031e-39
2158.8899 -2977.3799 254.548 9.2197031e-39
2171.4099 -2969.04 258.42401 9.2197031e-39
2189.02 -2965.21 263.23099 9.2197031e-39
2202.21 -2957.21 267.25101 9.2197031e-39
2228.05 -2960.1101 273.60501 9.2197031e-39
2303.6899 -3005.1299 289.202 9.2197031e-39
2255.1599 -2904.9299 285.04999 9.2197031e-39
2254.8401 -2885.6399 286.55099 9.2197031e-39
2254.28 -2866.4299 287.987 9.2197031e-39
2245.6799 -2841.28 287.85699 9.2197031e-39
2308.9399 -2988.99 291.86499 9.2197031e-39
2306.3799 -2966.55 293.05701 9.2197031e-39
2260.3999 -2834.23 292.19 9.2197031e-39
2245.75 -2805.2 290.83701 9.2197031e-39
1259.7 852.19995 339.599 9.2197031e-39
1350.13 835.29004 361.27499 9.2197031e-39
1375.74 848.41003 368.884 9.2197031e-39
1338.23 908.25 364.23001 9.2197031e-39
1319.9301 945.83997 362.64899 9.2197031e-39
1420.6801 836.81995 379.39499 9.2197031e-39
1401.26 859.31006 376.28699 9.2197031e-39
1313.96 1076.8 371.87701 9.2197031e-39
1445.59 843.37 386.28699 9.2197031e-39
1582.5 556.68005 397.67099 9.2197031e-39
1568.99 587.82996 396.78201 9.2197031e-39
1468.03 837.06006 391.492 9.2197031e-39
1492.73 841.19995 398.13199 9.2197031e-39
1552.73 697.93994 401.67499 9.2197031e-39
1538.09 731.92004 400.73099 9.2197031e-39
1539.3101 835.25 409.52399 9.2197031e-39
1518.21 847.98999 405.18799 9.2197031e-39
1686.27 465.33997 416.63901 9.2197031e-39
1671.6801 487.59998 414.746 9.2197031e-39
1591.29 756.75 416.33801 9.2197031e-39
1742.78 437.92004 428.802 9.2197031e-39
1706.0601 458.84998 421.15399 9.2197031e-39
1725.14 450.31995 425.32101 9.2197031e-39
2056.1101 -418.487 438.41101 9.2197031e-39
2049.5 -401.19 438.14499 9.2197031e-39
1775.26 465.06006 439.31601 9.2197031e-39
2112.01 -451.814 449.93201 9.2197031e-39
2085.1001 -433.74899 444.552 9.2197031e-39
2101.45 -439.39301 448.258 9.2197031e-39
2073.1201 -423.043 442.375 9.2197031e-39
1795.45 458.68005 443.94101 9.2197031e-39
1689.52 848.31006 448.91 9.2197031e-39
2141.95 -466.81 456.34 9.2197031e-39
2128.9399 -457.052 453.82199 9.2197031e-39
1819.25 461.27002 450.22299 9.2197031e-39
1843.53 464.52002 456.68399 9.2197031e-39
1732.26 824.54004 457.85999 9.2197031e-39
1709.6801 832.25 452.733 9.2197031e-39
2183.9399 -493.33502 464.87201 9.2197031e-39
2202.1399 -498.06201 469.12701 9.2197031e-39
2173.78 -480.33398 463.34799 9.2197031e-39
2160.1899 -470.98199 460.64899 9.2197031e-39
2110.3701 -298.035 462.13901 9.2197031e-39
1862.63 454.77002 460.75601 9.2197031e-39
1887.85 459.34998 467.56299 9.2197031e-39
1758.39 827.92004 464.802 9.2197031e-39
2219 -504.39301 472.905 9.2197031e-39
1914.01 465.44995 474.737 9.2197031e-39
1939.15 468.55005 481.40399 9.2197031e-39
1969.36 482.10999 490.22198 9.2197031e-39
1996.54 488.17004 497.651 9.2197031e-39
2027.3101 501 506.55399 9.2197031e-39
2052.77 501.97998 513.12701 9.2197031e-39
2097.29 540.43994 527.64203 9.2197031e-39
3500.3999 -3702.6399 537.17401 9.2197031e-39
3534.3201 -3692.9099 546.625 9.2197031e-39
3264.53 -2820.5 549.43201 9.2197031e-39
3560.1899 -3677.03 554.52502 9.2197031e-39
3547.8 -3634.46 554.85999 9.2197031e-39
3543.8799 -3598.3401 556.82599 9.2197031e-39
3546.9399 -3567.3301 560.15302 9.2197031e-39
3380.27 -2895.6499 572.78601 9.2197031e-39
3357.5601 -2834.99 571.97198 9.2197031e-39
3401.0701 -2827.5801 583.677 9.2197031e-39
3673.29 -3583.1399 591.08197 9.2197031e-39
3430.05 -2813.7 592.211 9.2197031e-39
3736.9299 -3589.54 606.78802 9.2197031e-39
3731.24 -3552.04 608.41602 9.2197031e-39
3783.3 -3549.9099 621.87 9.2197031e-39
3900.74 -3585.6201 648.89301 9.2197031e-39
3234.03 -1531.944 647.44299 9.2197031e-39
3235.9199 -1510.4451 649.68799 9.2197031e-39
3247.1899 -1487.5349 654.44397 9.2197031e-39
3886.05 -3373.1699 662.586 9.2197031e-39
3895.1299 -3344.9099 667.22198 9.2197031e-39
3275.45 -1461.811 663.76501 9.2197031e-39
3269.0701 -1441.0171 663.84497 9.2197031e-39
3260.6201 -1420.625 663.36298 9.2197031e-39
3158.0601 -1025.95 669.60498 9.2197031e-39
3139.0601 -1009.97 666.073 9.2197031e-39
3899.5601 -3314.3899 670.85797 9.2197031e-39
3290.23 -1349.158 676.78302 9.2197031e-39
3291.4399 -1326.5911 678.94397 9.2197031e-39
3279.22 -1306.806 677.45099 9.2197031e-39
3158 -980.104 673.354 9.2197031e-39
3121.6699 -806.66003 678.32599 9.2197031e-39
4047.05 -3635.6699 682.10101 9.2197031e-39
3288.53 -1282.323 681.836 9.2197031e-39
3283.49 -1260.931 682.30798 9.2197031e-39
3290.48 -1236.606 686.086 9.2197031e-39
2998.77 -334.09 685.77802 9.2197031e-39
4076.3601 -3616.0701 691.185 9.2197031e-39
4059.1699 -3570.2 690.56598 9.2197031e-39
4078.55 -3545.03 697.578 9.2197031e-39
4034.47 -3485.79 691.198 9.2197031e-39
3998.01 -3330.2 694.672 9.2197031e-39
3411.6699 -1533.0171 692.664 9.2197031e-39
3359.53 -1381.2319 691.82703 9.2197031e-39
3356.27 -1359.0381 692.81598 9.2197031e-39
3246.4199 -1018.452 692.758 9.2197031e-39
3184.3601 -802.67297 694.64502 9.2197031e-39
3247.1799 -849.54102 706.82001 9.2197031e-39
3234.9199 -829.97101 705.29901 9.2197031e-39
3226.9399 -808.612 705.01801 9.2197031e-39
4066.8301 -3329.9199 712.24902 9.2197031e-39
4073.6699 -3299.3201 716.50598 9.2197031e-39
3372.1399 -1193.123 710.48499 9.2197031e-39
3348.8501 -1007.921 719.74902 9.2197031e-39
3203.6499 -615.36877 714.94299 9.2197031e-39
2578.52 1359.22 717.60602 9.2197031e-39
2559.75 1391.21 715.44202 9.2197031e-39
4082.02 -3269.52 721.08002 9.2197031e-39
4093.6699 -3241.28 726.37097 9.2197031e-39
4032.47 -3020.9399 728.849 9.2197031e-39
4025.53 -2986.9099 729.875 9.2197031e-39
2686.5801 1172.5 729.83801 9.2197031e-39
2667.25 1199.85 727.15198 9.2197031e-39
2716.76 1163.49 736.79401 9.2197031e-39
2670.4199 1267.15 733.48602 9.2197031e-39
2632.5801 1393.8 734.23297 9.2197031e-39
4090.8401 -2979.6599 747.12799 9.2197031e-39
3484.04 -1140.006 743.388 9.2197031e-39
3485.21 -1114.806 745.75403 9.2197031e-39
3477.78 -1091.887 745.73999 9.2197031e-39
2684.05 1355.3301 744.203 9.2197031e-39
2810.55 1083.38 754.13898 9.2197031e-39
2799.28 1122.23 754.45697 9.2197031e-39
2791.1599 1166.92 756.05402 9.2197031e-39
2780.8899 1209.21 756.90399 9.2197031e-39
2870.5801 1063.23 767.79797 9.2197031e-39
2844.1001 1078.75 762.31799 9.2197031e-39
4201.3901 -2987.4199 774.68701 9.2197031e-39
3564.0601 -1015.546 774.01501 9.2197031e-39
3502.0601 -771.24548 778.25897 9.2197031e-39
4228.1802 -2964.1499 783.42999 9.2197031e-39
2919.79 1080.4301 781.76099 9.2197031e-39
2779.2 1595.5901 788.19598 9.2197031e-39
4258.52 -2941.73 793.01001 9.2197031e-39
3493.73 -492.78601 798.99402 9.2197031e-39
2954.79 1076.1801 790.34003 9.2197031e-39
3885.6001 -1587.359 809.08398 9.2197031e-39
3865.6699 -1562.141 806.07098 9.2197031e-39
3871.55 -1534.783 809.81598 9.2197031e-39
3939.73 -1500.7739 829.99701 9.2197031e-39
3643.8201 -507.86401 836.03802 9.2197031e-39
3617.3799 -490.409 830.72699 9.2197031e-39
3153.6599 1299.3199 859.383 9.2197031e-39
3750.72 -393.14401 872.72198 9.2197031e-39
3838.23 -447.013 890.62097 9.2197031e-39
3837.96 -110.59998 918.16998 9.2197031e-39
3827.8501 -81.143005 918.00897 9.2197031e-39
3799.1399 9.0360107 918.091 9.2197031e-39
3780.5901 33.617004 915.37903 9.2197031e-39
3636.2 512.35999 917.85199 9.2197031e-39
3870.8601 -162.07202 922.33801 9.2197031e-39
3855.3501 -135.77698 920.53998 9.2197031e-39
3824.8999 -47.205994 920.04498 9.2197031e-39
3833.95 -5.5269775 925.77301 9.2197031e-39
3809.5801 89.414001 927.35199 9.2197031e-39
3812.0901 128.62299 931.211 9.2197031e-39
3828.54 177.87903 939.45099 9.2197031e-39
3723.8701 459.60999 935.883 9.2197031e-39
3830.0601 217.62 943.10199 9.2197031e-39
3778.3401 419.93994 946.521 9.2197031e-39
3751.1599 439.93005 941.229 9.2197031e-39
3674.78 676.58997 941.17499 9.2197031e-39
3664.48 712.23999 941.47498 9.2197031e-39
3656.6201 750.56995 942.61902 9.2197031e-39
3645.52 786.27002 942.71698 9.2197031e-39
3636.1101 824.02002 943.41602 9.2197031e-39
3631.8101 867.27002 945.87 9.2197031e-39
3812.3401 404.94995 953.961 9.2197031e-39
3763.8401 534.54004 952.23102 9.2197031e-39
3723.9199 675.76001 953.64203 9.2197031e-39
3872.4399 367.91003 966.25098 9.2197031e-39
3845.53 388.93994 961.11298 9.2197031e-39
3907.8701 352.81995 974.047 9.2197031e-39
3814.6299 620.38 972.23297 9.2197031e-39
3872.1299 760.31995 998.38702 9.2197031e-39
3642.3601 1909.28 1034.11 9.2197031e-39
3692.46 1908.26 1046.8 9.2197031e-39
3745.1399 1909.74 1060.36 9.2197031e-39
3793.28 1904.3701 1072.2 9.2197031e-39
7118.23 -3843.48 1448.38 9.2197031e-39
7124.79 -3785.1101 1454.85 9.2197031e-39
7122.4302 -3724.1699 1459.25 9.2197031e-39
7118.5698 -3663.1299 1463.28 9.2197031e-39
7123.5298 -3604.98 1469.3101 9.2197031e-39
7120.46 -3544.76 1473.47 9.2197031e-39
7123.4302 -3486.5 1479.02 9.2197031e-39
7128.73 -3429.02 1485.09 9.2197031e-39
7245.1299 -3399.47 1517.2 9.2197031e-39
6924.5898 -1894.6899 1558.98 9.2197031e-39
6907.5 -1840.67 1559.0601 9.2197031e-39
6886.4399 -1679.644 1566.91 9.2197031e-39
6911.1001 -1625.144 1577.67 9.2197031e-39
7596.5098 -3424.52 1604.77 9.2197031e-39
7163.0601 -2066.0601 1605.74 9.2197031e-39
7139.9102 -1953.38 1609.09 9.2197031e-39
7015.5801 -1566.8931 1609.1 9.2197031e-39
6936.3198 -1407.119 1602 9.2197031e-39
7163.8398 -2010 1610.54 9.2197031e-39
7152.5098 -1785.67 1626.0699 9.2197031e-39
7158.6699 -1729.55 1632.24 9.2197031e-39
7737.8501 -3394.6299 1643.27 9.2197031e-39
7730.7598 -3329.3601 1646.8199 9.2197031e-39
7155.25 -1504.949 1649.8101 9.2197031e-39
7159.9702 -1448.3621 1655.66 9.2197031e-39
7692.77 -2209.02 1729.11 9.2197031e-39
7707.2402 -2148.8301 1737.74 9.2197031e-39
8125.1401 -3349.8301 1745.73 9.2197031e-39
6937.1099 1411.8701 1833.64 9.2197031e-39
7030.5698 1533.28 1867.4399 9.2197031e-39
7603.5 138.78198 1899.09 9.2197031e-39
7612.1299 273.37598 1912.34 9.2197031e-39
7617.79 341.79004 1919.4 9.2197031e-39
7503.0698 774.90002 1925.7 9.2197031e-39
7620.7002 751.44995 1953.78 9.2197031e-39
