# .PCD v0.7 - Point Cloud Data file format
VERSION 0.7
FIELDS x y z rgb
SIZE 4 4 4 4
TYPE F F F F
COUNT 1 1 1 1
WIDTH 305
HEIGHT 1
VIEWPOINT 0 0 0 1 0 0 0
POINTS 305
DATA ascii
1537.14 -3752.1799 32.352402 9.2197031e-39
1555.64 -3753.5 36.9622 9.2197031e-39
985.31232 -1960.9166 38.661766 9.2197031e-39
976.77502 -1953.23 37.1152 9.2197031e-39
986.12402 -1957.505 39.148651 9.2197031e-39
967.39697 -1941.01 35.726101 9.2197031e-39
973.12103 -1947.1967 36.678131 9.2197031e-39
984.3385 -1947.125 39.545403 9.2197031e-39
959.78699 -1931.1899 34.591099 9.2197031e-39
963.05731 -1937.41 34.914799 9.2197031e-39
983.63702 -1939.48 39.993599 9.2197031e-39
890.72253 -1682.605 37.384048 9.2197031e-39
886.66199 -1676.7209 36.831299 9.2197031e-39
887.93799 -1666.3655 38.007 9.2197031e-39
893.09479 -1666.6194 39.30135 9.2197031e-39
-21.179001 1089.21 32.352402 9.2197031e-39
6.92553 1085.53 39.218498 9.2197031e-39
1591.5 -3751.8 46.2481 9.2197031e-39
1571.9399 -3748.01 41.571602 9.2197031e-39
1008.27 -1956.88 44.848801 9.2197031e-39
986.32251 -1944.27 40.28595 9.2197031e-39
993.33704 -1942.5651 42.214951 9.2197031e-39
1015.03 -1946.8101 47.398701 9.2197031e-39
987.22205 -1938.485 40.989952 9.2197031e-39
991.83301 -1936.71 42.312302 9.2197031e-39
1005.68 -1938.98 45.657299 9.2197031e-39
991.03998 -1917.55 43.683102 9.2197031e-39
905.59497 -1682.5586 41.181252 9.2197031e-39
927.41504 -1685.9675 46.466797 9.2197031e-39
905.16913 -1675.6229 41.641964 9.2197031e-39
926.00452 -1672.7898 47.188927 9.2197031e-39
931.23199 -1672.9509 48.5089 9.2197031e-39
898.08899 -1665.066 40.702801 9.2197031e-39
911.54535 -1663.4927 44.26413 9.2197031e-39
922.53101 -1663.9556 47.028099 9.2197031e-39
895.22498 -1657.318 40.608398 9.2197031e-39
916.85242 -1655.248 46.294678 9.2197031e-39
921.14899 -1650.879 47.749298 9.2197031e-39
31.132099 1094 46.0886 9.2197031e-39
1607.78 -3745.99 50.8783 9.2197031e-39
1627.47 -3749.4099 55.620098 9.2197031e-39
1095.8 -2073.1899 57.6259 9.2197031e-39
1085.6801 -2063.3 55.856499 9.2197031e-39
1075.1801 -2052.4302 54.07 9.2197031e-39
55.704201 1101.3 52.955399 9.2197031e-39
82.534599 1100.6899 59.748402 9.2197031e-39
1137.1801 -2120.6001 64.288101 9.2197031e-39
1114.25 -2094.24 60.603199 9.2197031e-39
109.565 1098.85 66.491898 9.2197031e-39
134.189 1105.45 73.314102 9.2197031e-39
158.373 1113.76 80.164703 9.2197031e-39
185.545 1110.21 86.8041 9.2197031e-39
211.21001 1112.23 93.516197 9.2197031e-39
236.862 1114.02 100.206 9.2197031e-39
262.06601 1117.51 106.921 9.2197031e-39
285.61801 1128.6 113.839 9.2197031e-39
1932.0601 -3110.46 185.765 9.2197031e-39
1940.33 -3098.3899 188.867 9.2197031e-39
1957.91 -3097.8401 193.395 9.2197031e-39
1962.21 -3080.98 195.877 9.2197031e-39
1973.36 -3072.51 199.41701 9.2197031e-39
1996.75 -3078.27 204.909 9.2197031e-39
2000.6899 -3061.23 207.313 9.2197031e-39
1963.22 -2919.52 209.39 9.2197031e-39
2011.03 -3051.6499 210.73599 9.2197031e-39
2020.61 -3041.23 214.035 9.2197031e-39
1991.1 -2988.29 210.854 9.2197031e-39
1981.14 -2957.74 210.823 9.2197031e-39
1965.46 -2903.1101 211.30701 9.2197031e-39
1977.9399 -2897.3601 214.963 9.2197031e-39
1983.38 -2884.45 217.409 9.2197031e-39
1992.92 -2875.6899 220.563 9.2197031e-39
2008.8199 -2873.05 224.83501 9.2197031e-39
2086.6201 -2928.9099 240.09399 9.2197031e-39
2161.0701 -2979.4099 254.937 9.2197031e-39
2178.71 -2975.74 259.737 9.2197031e-39
2189.02 -2965.21 263.23099 9.2197031e-39
2208.1399 -2962.47 268.33301 9.2197031e-39
2228.05 -2960.1101 273.60501 9.2197031e-39
2303.6899 -3005.1299 289.202 9.2197031e-39
2257.47 -2906.8 285.48499 9.2197031e-39
2254.8401 -2885.6399 286.55099 9.2197031e-39
2255.0601 -2867.04 288.13599 9.2197031e-39
2241.76 -2838.26 287.10599 9.2197031e-39
2240.1899 -2801.0701 289.759 9.2197031e-39
2311.21 -2990.8999 292.28799 9.2197031e-39
2310.96 -2970.3301 293.914 9.2197031e-39
2249.3601 -2825.8799 290.061 9.2197031e-39
1258.04 839.39001 338.12399 9.2197031e-39
1375.74 848.41003 368.884 9.2197031e-39
1353.99 858.80005 364.19101 9.2197031e-39
1340.83 924.93005 366.26099 9.2197031e-39
1317.62 930.12 360.76901 9.2197031e-39
1400.1899 853.44995 375.534 9.2197031e-39
1445.01 840.45996 385.89899 9.2197031e-39
1423.84 853.39001 381.561 9.2197031e-39
1567.4301 582.09998 395.91299 9.2197031e-39
1491.46 835.39001 397.332 9.2197031e-39
1471.88 855.5 393.98801 9.2197031e-39
1587.0601 572.85999 400.16299 9.2197031e-39
1551.02 691.22998 400.68799 9.2197031e-39
1540.45 741.54004 402.12201 9.2197031e-39
1515.36 835.43005 403.42999 9.2197031e-39
1685.3199 462.54004 416.16599 9.2197031e-39
1672.91 491.35999 415.36899 9.2197031e-39
1594.8199 770.15002 418.33801 9.2197031e-39
1541.13 842.95996 410.621 9.2197031e-39
1742.78 437.92004 428.802 9.2197031e-39
1723.48 445.68005 424.51501 9.2197031e-39
1707.03 461.65002 421.63199 9.2197031e-39
2053.1599 -396.62399 439.45499 9.2197031e-39
1775.26 465.06006 439.31601 9.2197031e-39
2112.01 -451.814 449.93201 9.2197031e-39
2085.1001 -433.74899 444.552 9.2197031e-39
2102.72 -437.91699 448.70401 9.2197031e-39
2073.1201 -423.043 442.375 9.2197031e-39
2062.28 -410.93301 440.60501 9.2197031e-39
1818.15 458.52002 449.71899 9.2197031e-39
1796.52 461.43994 444.44 9.2197031e-39
1688.6899 845.45996 448.465 9.2197031e-39
2154.8999 -476.69598 458.82999 9.2197031e-39
2147.8601 -460.327 458.37701 9.2197031e-39
2128.9399 -457.052 453.82199 9.2197031e-39
1840.1801 456.31006 455.15601 9.2197031e-39
1708.8199 829.41003 452.28201 9.2197031e-39
1732.26 824.54004 457.85999 9.2197031e-39
2183.9399 -493.33502 464.87201 9.2197031e-39
2202.1399 -498.06201 469.12701 9.2197031e-39
2172.45 -481.75 462.89099 9.2197031e-39
2110.3701 -298.035 462.13901 9.2197031e-39
1865.29 461.14001 461.95599 9.2197031e-39
1889.01 462.06995 468.08301 9.2197031e-39
1758.99 829.81006 465.10999 9.2197031e-39
2221.05 -502.32401 473.60001 9.2197031e-39
1910.0601 456.43005 472.98801 9.2197031e-39
1937.9399 465.85999 480.875 9.2197031e-39
1969.36 482.10999 490.22198 9.2197031e-39
1997.37 489.94995 498.01001 9.2197031e-39
2033.28 513.41003 509.09399 9.2197031e-39
2052.77 501.97998 513.12701 9.2197031e-39
2094.6499 535.17004 526.534 9.2197031e-39
3496.4099 -3699.73 536.39502 9.2197031e-39
3541.55 -3698.0901 548.04303 9.2197031e-39
3266.3301 -2821.27 549.82898 9.2197031e-39
3553.73 -3672.49 553.25098 9.2197031e-39
3554.3 -3638.95 556.14899 9.2197031e-39
3542.25 -3597.23 556.5 9.2197031e-39
3570.76 -3583.1699 564.92798 9.2197031e-39
3351.53 -2883.0601 566.48798 9.2197031e-39
3369.3101 -2839.8899 574.56799 9.2197031e-39
3390.1799 -2823.1599 581.26398 9.2197031e-39
3680.76 -3587.9199 592.59497 9.2197031e-39
3637.3 -3429.53 594.513 9.2197031e-39
3440.98 -2818.03 594.64203 9.2197031e-39
3727.75 -3583.77 604.91998 9.2197031e-39
3734.6001 -3554.1101 609.10199 9.2197031e-39
3829.6599 -3577.9199 631.39502 9.2197031e-39
3234.99 -1531.8259 647.69702 9.2197031e-39
3238.79 -1510.067 650.453 9.2197031e-39
3251.02 -1486.996 655.46503 9.2197031e-39
3886.9199 -3373.6201 662.771 9.2197031e-39
3889.01 -3341.77 665.91901 9.2197031e-39
3895.1699 -3312.1899 669.91998 9.2197031e-39
3268.76 -1462.814 661.97498 9.2197031e-39
3267.1699 -1441.321 663.33301 9.2197031e-39
3260.6201 -1420.625 663.36298 9.2197031e-39
3156.23 -1026.5911 669.08801 9.2197031e-39
3147.24 -1007.01 668.40002 9.2197031e-39
3288.6001 -1327.175 678.172 9.2197031e-39
3271.26 -1263.7949 678.953 9.2197031e-39
3154.3799 -981.453 672.32001 9.2197031e-39
4051.5601 -3601.95 686.01898 9.2197031e-39
3388.6101 -1535.63 686.56598 9.2197031e-39
3302.5601 -1346.7361 680.12598 9.2197031e-39
3292.4399 -1303.959 681.05798 9.2197031e-39
3290.4199 -1281.8989 682.35199 9.2197031e-39
3278.27 -1239.5811 682.729 9.2197031e-39
3214.4299 -1029.39 683.70001 9.2197031e-39
3150.6699 -793.40051 686.81201 9.2197031e-39
2990.0901 -340.26501 683.05603 9.2197031e-39
3987.4399 -3325.01 692.40002 9.2197031e-39
3379.52 -1377.679 697.21503 9.2197031e-39
3356.27 -1359.0381 692.81598 9.2197031e-39
3169.3601 -809.36798 690.27002 9.2197031e-39
4117.5898 -3602.78 702.79199 9.2197031e-39
3241.8201 -851.75903 705.271 9.2197031e-39
3235.8101 -829.59302 705.55701 9.2197031e-39
3226.9399 -808.612 705.01801 9.2197031e-39
3183.96 -625.69592 709.07202 9.2197031e-39
4207.9199 -3729.1001 715.46198 9.2197031e-39
4069.49 -3331.1899 712.82098 9.2197031e-39
4066.5701 -3295.98 714.96698 9.2197031e-39
3389.9299 -1188.614 715.39301 9.2197031e-39
2578.52 1359.22 717.60602 9.2197031e-39
2564.23 1399.95 717.30402 9.2197031e-39
4082.9099 -3269.9299 721.27399 9.2197031e-39
4090.99 -3240.0801 725.78497 9.2197031e-39
4033.3799 -3021.3 729.05298 9.2197031e-39
3349.77 -1007.617 720.008 9.2197031e-39
2667.25 1199.85 727.15198 9.2197031e-39
4232.1099 -3591.54 732.92499 9.2197031e-39
4027.3701 -2987.6001 730.28601 9.2197031e-39
2716.76 1163.49 736.79401 9.2197031e-39
2688.5901 1175.87 730.625 9.2197031e-39
2664.5901 1256.92 731.15997 9.2197031e-39
2628.4099 1386.01 732.52899 9.2197031e-39
4100.9502 -2983.3701 749.40198 9.2197031e-39
3484.04 -1140.006 743.388 9.2197031e-39
3486.1399 -1114.552 746.013 9.2197031e-39
3479.6399 -1091.3621 746.258 9.2197031e-39
2684.53 1356.1799 744.39502 9.2197031e-39
2813.76 1088.29 755.36298 9.2197031e-39
2799.28 1122.23 754.45697 9.2197031e-39
2797.95 1177.7 758.66901 9.2197031e-39
2777.28 1203.37 755.50598 9.2197031e-39
3441.1499 -795.83661 760.70203 9.2197031e-39
2875.53 1070.52 769.65802 9.2197031e-39
2845.73 1081.2 762.93402 9.2197031e-39
4206.9199 -2989.3899 775.935 9.2197031e-39
3569.6101 -1013.87 775.56702 9.2197031e-39
2909.21 1065.15 777.80798 9.2197031e-39
4219.8599 -2961.27 781.54602 9.2197031e-39
2951.97 1072.1899 789.29303 9.2197031e-39
4265 -2943.9099 794.48499 9.2197031e-39
3477.3899 -501.16901 794.13702 9.2197031e-39
2789.5601 1614.54 792.39398 9.2197031e-39
4611.8901 -3836.4299 809.68799 9.2197031e-39
3865.6699 -1562.141 806.07098 9.2197031e-39
3871.55 -1534.783 809.81598 9.2197031e-39
3894.28 -1586.6909 811.35303 9.2197031e-39
3907.98 -1504.082 821.62701 9.2197031e-39
3610.4399 -493.814 828.677 9.2197031e-39
3643.8201 -507.86401 836.03802 9.2197031e-39
3137.1101 1276.3 853.27301 9.2197031e-39
3767.1299 -384.909 877.58502 9.2197031e-39
3835.6101 -448.242 889.84998 9.2197031e-39
3857.3601 -169.62598 918.27301 9.2197031e-39
3849.47 -139.13501 918.76501 9.2197031e-39
3829.51 -80.153015 918.51501 9.2197031e-39
3795.8701 6.96698 917.08698 9.2197031e-39
3785.47 36.765991 916.88202 9.2197031e-39
3633.24 509.82996 916.89203 9.2197031e-39
3845.48 -106.21301 920.44897 9.2197031e-39
3836.48 -40.171021 923.57599 9.2197031e-39
3836.4099 -3.9979858 926.52802 9.2197031e-39
3807.96 88.348999 926.85199 9.2197031e-39
3812.0901 128.62299 931.211 9.2197031e-39
3813.3799 205.98297 937.89099 9.2197031e-39
3723.8701 459.60999 935.883 9.2197031e-39
3833.3301 181.15997 940.94299 9.2197031e-39
3778.3401 419.93994 946.521 9.2197031e-39
3751.1599 439.93005 941.229 9.2197031e-39
3674.78 676.58997 941.17499 9.2197031e-39
3664.48 712.23999 941.47498 9.2197031e-39
3653.79 747.91003 941.677 9.2197031e-39
3652.5601 792.97998 945.06299 9.2197031e-39
3643.79 831.45996 945.98602 9.2197031e-39
3633.1899 868.64001 946.336 9.2197031e-39
3837.78 383.12 958.659 9.2197031e-39
3805.4099 399.64001 951.758 9.2197031e-39
3769.0801 538.87 953.92297 9.2197031e-39
3718.8401 671.23999 951.97498 9.2197031e-39
3872.4399 367.91003 966.25098 9.2197031e-39
3907.8701 352.81995 974.047 9.2197031e-39
3811.6599 617.88 971.26898 9.2197031e-39
3857.49 747.56006 993.60498 9.2197031e-39
3635.4299 1899.8201 1031.5699 9.2197031e-39
3693.05 1909.05 1047.02 9.2197031e-39
3746.3201 1911.29 1060.79 9.2197031e-39
3788.5 1898.1899 1070.47 9.2197031e-39
7118.23 -3843.48 1448.38 9.2197031e-39
7124.79 -3785.1101 1454.85 9.2197031e-39
7122.4302 -3724.1699 1459.25 9.2197031e-39
7118.5698 -3663.1299 1463.28 9.2197031e-39
7116.0298 -3602.8101 1467.58 9.2197031e-39
7120.46 -3544.76 1473.47 9.2197031e-39
7124.3799 -3486.75 1479.24 9.2197031e-39
7128.73 -3429.02 1485.09 9.2197031e-39
7282.0298 -3408.7 1525.85 9.2197031e-39
6902.2998 -1894.4 1553.3199 9.2197031e-39
6926.8799 -1840.75 1563.99 9.2197031e-39
6886.4399 -1679.644 1566.91 9.2197031e-39
6910.1299 -1625.175 1577.42 9.2197031e-39
7608.8301 -3427.49 1607.67 9.2197031e-39
7163.0601 -2066.0601 1605.74 9.2197031e-39
7156.0801 -2009.75 1608.58 9.2197031e-39
7121.5 -1952.97 1604.42 9.2197031e-39
7006.8701 -1567.249 1606.85 9.2197031e-39
6936.3198 -1407.119 1602 9.2197031e-39
7162.2002 -1785.62 1628.54 9.2197031e-39
7158.6699 -1729.55 1632.24 9.2197031e-39
7740.7002 -3395.29 1643.95 9.2197031e-39
7736.4702 -3330.6299 1648.1801 9.2197031e-39
7145.5898 -1505.431 1647.3101 9.2197031e-39
7152.2402 -1448.817 1653.65 9.2197031e-39
7696.6401 -2209.24 1730.08 9.2197031e-39
7701.4302 -2148.55 1736.28 9.2197031e-39
8179.4399 -3361.3799 1758.64 9.2197031e-39
6931.1401 1408.6799 1831.85 9.2197031e-39
7039.8999 1538.3899 1870.24 9.2197031e-39
7612.77 141.492 1901.6801 9.2197031e-39
7612.1299 273.37598 1912.34 9.2197031e-39
7618.71 342.08997 1919.66 9.2197031e-39
7497.6802 772.78003 1924.15 9.2197031e-39
7629.7202 754.90002 1956.36 9.2197031e-39
