# .PCD v0.7 - Point Cloud Data file format
VERSION 0.7
FIELDS x y z rgb
SIZE 4 4 4 4
TYPE F F F F
COUNT 1 1 1 1
WIDTH 298
HEIGHT 1
VIEWPOINT 0 0 0 1 0 0 0
POINTS 298
DATA ascii
120.741 -7692 32.352402 9.2197031e-39
142.519 -860.42297 38.187698 9.2197031e-39
144.66766 -856.37964 38.763565 9.2197031e-39
136.94067 -847.02002 36.693134 9.2197031e-39
145.062 -842.797 38.869202 9.2197031e-39
128.819 -836.74402 34.516998 9.2197031e-39
133.02066 -836.06598 35.642765 9.2197031e-39
145.56 -838.63904 39.0028 9.2197031e-39
129.36501 -827.68799 34.6633 9.2197031e-39
134.95599 -829.164 36.161301 9.2197031e-39
146.11301 -826.28601 39.150902 9.2197031e-39
145.57567 -819.25269 39.006802 9.2197031e-39
148.771 -574.30603 39.862999 9.2197031e-39
132.397 -239.15799 35.4757 9.2197031e-39
142.31949 -235.041 38.134399 9.2197031e-39
128.81599 -221.073 34.515999 9.2197031e-39
148.57401 -228.88 39.8102 9.2197031e-39
122.789 -216.00951 32.901199 9.2197031e-39
137.09 -215.29501 36.7332 9.2197031e-39
179.77 -7702.73 48.1693 9.2197031e-39
173.297 -853.651 46.434799 9.2197031e-39
166.21776 -843.72229 44.537903 9.2197031e-39
154.3325 -831.96204 41.353203 9.2197031e-39
164.073 -832.05505 43.963303 9.2197031e-39
153.41824 -824.98376 41.108299 9.2197031e-39
164.37801 -820.83099 44.044998 9.2197031e-39
151.241 -817.84302 40.524799 9.2197031e-39
166.483 -600.71558 44.6091 9.2197031e-39
149.91 -591.10999 40.168201 9.2197031e-39
150.246 -581.88599 40.258301 9.2197031e-39
149.89 -576.63855 40.162849 9.2197031e-39
156.1922 -575.51202 41.851582 9.2197031e-39
175.327 -573.02954 46.978699 9.2197031e-39
165.79221 -564.62 44.423923 9.2197031e-39
175.14218 -564.67743 46.929203 9.2197031e-39
180.024 -565.32599 48.237301 9.2197031e-39
150.84599 -559.41296 40.419102 9.2197031e-39
174.94751 -553.91449 46.877052 9.2197031e-39
154.681 -534.69299 41.446499 9.2197031e-39
155.97101 -516.59302 41.792252 9.2197031e-39
157.17799 -496.466 42.1157 9.2197031e-39
181.32201 -325.211 48.584999 9.2197031e-39
182.24001 -298.01099 48.8311 9.2197031e-39
182.41901 -272.745 48.878899 9.2197031e-39
180.159 -262.302 48.273499 9.2197031e-39
177.476 -253.85001 47.5546 9.2197031e-39
166.782 -246.49799 44.688999 9.2197031e-39
172.46051 -247.662 46.210651 9.2197031e-39
163.976 -235.14999 43.937099 9.2197031e-39
154.92751 -223.8185 41.512749 9.2197031e-39
160.729 -226.80801 43.0672 9.2197031e-39
195.884 -258.806 52.487 9.2197031e-39
239.30099 -7731.9302 64.120499 9.2197031e-39
303.37399 -7920.52 81.288803 9.2197031e-39
364.466 -7925.6001 97.658401 9.2197031e-39
425.36301 -7923.1201 113.976 9.2197031e-39
1206.2 935.06995 323.20001 9.2197031e-39
1223.8199 930.93005 327.92099 9.2197031e-39
1251.67 1648.3101 335.384 9.2197031e-39
1251.3101 1699.78 335.28699 9.2197031e-39
1301.3 1504.9199 348.68201 9.2197031e-39
1281.75 1513.74 343.44299 9.2197031e-39
1284.8101 1566.53 344.26401 9.2197031e-39
1274.58 1594.7 341.52301 9.2197031e-39
1271.42 1638 340.67599 9.2197031e-39
1333.8199 936.68994 357.397 9.2197031e-39
1314.75 940.40002 352.28601 9.2197031e-39
1319.26 976.84998 353.495 9.2197031e-39
1328.63 1465.9299 356.005 9.2197031e-39
1309.85 1475.8899 350.974 9.2197031e-39
1352.72 1465.27 362.461 9.2197031e-39
1384.08 944.26001 370.86301 9.2197031e-39
1453.12 1507.47 389.362 9.2197031e-39
1429.63 1555.21 383.069 9.2197031e-39
1484.89 1279.9301 397.875 9.2197031e-39
1482.5699 1513.0601 397.255 9.2197031e-39
1456.67 1556.9399 390.31299 9.2197031e-39
1519.51 -3877.5801 407.14999 9.2197031e-39
1522.1899 776.43005 407.86801 9.2197031e-39
1522.4301 940.20996 407.93399 9.2197031e-39
1509.47 1278.86 404.46201 9.2197031e-39
1504.21 1463.9299 403.05301 9.2197031e-39
1552.1 -4560.3604 415.884 9.2197031e-39
1551.3101 -4459.8203 415.67099 9.2197031e-39
1553.64 -4371.6499 416.29501 9.2197031e-39
1540.91 -4249.5498 412.88599 9.2197031e-39
1541.72 -4165.7002 413.10199 9.2197031e-39
1542.76 -4085.79 413.38101 9.2197031e-39
1541.78 -4004.29 413.11801 9.2197031e-39
1536.4399 -3843.0801 411.68799 9.2197031e-39
1536.27 -3772.3999 411.64099 9.2197031e-39
1542.59 -3652.3899 413.336 9.2197031e-39
1551.46 657.26001 415.71201 9.2197031e-39
1549.15 679 415.09299 9.2197031e-39
1548.24 777.84998 414.849 9.2197031e-39
1544.61 937.15002 413.87601 9.2197031e-39
1531.16 1548.48 410.27399 9.2197031e-39
1600.22 -3840.3899 428.77701 9.2197031e-39
1571.37 -3647.45 421.047 9.2197031e-39
1603.29 -3648.4199 429.60101 9.2197031e-39
1594.92 748.30005 427.35901 9.2197031e-39
1636.25 -3650.8101 438.43301 9.2197031e-39
1617.53 670.95996 433.41501 9.2197031e-39
1641.87 930.73999 439.93799 9.2197031e-39
1660.61 -3636.1299 444.95801 9.2197031e-39
1644.72 554.98999 440.70099 9.2197031e-39
1694.66 -3639.6001 454.08401 9.2197031e-39
1704.47 535.53003 456.71201 9.2197031e-39
1690.9301 547.34998 453.08401 9.2197031e-39
1680.36 561.48999 450.25 9.2197031e-39
1728.9 -3642.6699 463.25601 9.2197031e-39
1740.73 -3095.2 466.427 9.2197031e-39
1745.15 -3057.6799 467.612 9.2197031e-39
1753.04 -3025.9199 469.72601 9.2197031e-39
1747.3101 -2975.72 468.189 9.2197031e-39
1722.59 527.12 461.56699 9.2197031e-39
1720.41 641.07996 460.98199 9.2197031e-39
1722.2 792.82996 461.46301 9.2197031e-39
1746.66 954.15002 468.01501 9.2197031e-39
1761.85 -3642.75 472.086 9.2197031e-39
1783.4 -3204.52 477.85999 9.2197031e-39
1778.63 -2977.71 476.58301 9.2197031e-39
1770.38 540.81006 474.37201 9.2197031e-39
1760.54 939.39001 471.73401 9.2197031e-39
1794.4399 -3641.6001 480.81699 9.2197031e-39
1795.42 -2959.47 481.07999 9.2197031e-39
1819.16 -2950.5601 487.44101 9.2197031e-39
1810.66 547.93005 485.16501 9.2197031e-39
1829.12 -3643.51 490.10999 9.2197031e-39
1863.45 -3644.1699 499.31 9.2197031e-39
1838.0601 -2935.1299 492.50699 9.2197031e-39
1861.09 -2924.97 498.67801 9.2197031e-39
1836.15 543.51001 491.995 9.2197031e-39
1897.42 -3643.5701 508.41101 9.2197031e-39
1877.61 550.06006 503.104 9.2197031e-39
1915.42 -2953.9199 513.23401 9.2197031e-39
1924.12 559.30005 515.565 9.2197031e-39
1940.84 -3657.77 520.047 9.2197031e-39
1975.1801 -3656.3101 529.24701 9.2197031e-39
1961.67 -2971.3201 525.62598 9.2197031e-39
1953.77 -2921.9099 523.51001 9.2197031e-39
1971.16 -2903.75 528.16998 9.2197031e-39
1950.37 917.78003 522.59998 9.2197031e-39
1975.04 910.82996 529.20898 9.2197031e-39
2010.15 -3655.29 538.61902 9.2197031e-39
1987.1 -2883.95 532.44202 9.2197031e-39
1987.99 -2846.95 532.67999 9.2197031e-39
1984.48 -2805.6599 531.73999 9.2197031e-39
1999.52 -2785.8201 535.771 9.2197031e-39
2007.73 -2758.6101 537.96802 9.2197031e-39
2040.9301 -3647.23 546.867 9.2197031e-39
2031.72 -2748.6799 544.396 9.2197031e-39
2044.85 -2727.0601 547.91602 9.2197031e-39
2049.6899 -329.88 549.211 9.2197031e-39
2047.4399 -312.276 548.60999 9.2197031e-39
2018.4301 600.35999 540.83698 9.2197031e-39
2087.0701 -359.34201 559.22803 9.2197031e-39
2067.95 -344.54199 554.10602 9.2197031e-39
2056.3999 -292.293 551.01202 9.2197031e-39
2062.3401 -272.741 552.60303 9.2197031e-39
2074.7 -251.53699 555.91302 9.2197031e-39
2085.8999 -230.302 558.91602 9.2197031e-39
2071.27 964.62 554.99597 9.2197031e-39
2094.6499 -2743.54 561.25897 9.2197031e-39
2116.5801 -372.73901 567.13501 9.2197031e-39
2099.71 -208.13101 562.61603 9.2197031e-39
2105.8 -187.60901 564.24799 9.2197031e-39
2116.3701 -165.68903 567.07898 9.2197031e-39
2126.72 -143.539 569.85199 9.2197031e-39
2133.8401 -2748.0601 571.76202 9.2197031e-39
2146.01 -386.64401 575.02197 9.2197031e-39
2129.3999 -123.29999 570.57001 9.2197031e-39
2196.8899 -2775.6399 588.65503 9.2197031e-39
2167.71 -402.17001 580.83502 9.2197031e-39
2221.8501 -413.62601 595.34302 9.2197031e-39
2215.6399 708.43994 593.67902 9.2197031e-39
2984.6201 -3464.8201 799.72699 9.2197031e-39
2983.6001 -3415.8701 799.45398 9.2197031e-39
2988.53 -3517.4399 800.77502 9.2197031e-39
2993.47 -3377.8601 802.09698 9.2197031e-39
2995.6699 -3333.25 802.68799 9.2197031e-39
2998.8101 -3290.1201 803.52802 9.2197031e-39
3096.1799 -3330.9099 829.61902 9.2197031e-39
3112.21 -700 833.91498 9.2197031e-39
3159.4299 -727.45367 846.56598 9.2197031e-39
3203.8601 -672.1449 858.47101 9.2197031e-39
3200.6101 -644.3443 857.59998 9.2197031e-39
3176.8501 -617.15002 851.23401 9.2197031e-39
3468.4099 -1003.215 929.35699 9.2197031e-39
3455.4299 -971.70398 925.87903 9.2197031e-39
3477.8301 -1095.985 931.88098 9.2197031e-39
3473.3501 -1064.804 930.68201 9.2197031e-39
3471.49 -1034.022 930.18402 9.2197031e-39
3506.74 -945.12402 939.62701 9.2197031e-39
3565.1699 -3692.1799 955.284 9.2197031e-39
3576.24 1122.77 958.24902 9.2197031e-39
3568.45 1158.08 956.16302 9.2197031e-39
3591.5901 -919.77502 962.36298 9.2197031e-39
3588.8 -354.284 961.61401 9.2197031e-39
3618.98 950.47998 969.703 9.2197031e-39
3611.9399 985.40002 967.81598 9.2197031e-39
3607.1899 1021.61 966.54303 9.2197031e-39
3591.6799 1052.61 962.38702 9.2197031e-39
3583.6899 1087.47 960.24597 9.2197031e-39
3649.29 813.13 977.823 9.2197031e-39
3643.51 848.07996 976.276 9.2197031e-39
3628.5601 879.05005 972.26801 9.2197031e-39
3624.8201 915.15002 971.26703 9.2197031e-39
3654.1499 1245.02 979.12598 9.2197031e-39
3713.8799 -894.95099 995.13202 9.2197031e-39
3723.71 584.37 997.76501 9.2197031e-39
3696.3601 610.85999 990.43597 9.2197031e-39
3720.5701 656.44995 996.92401 9.2197031e-39
3721.6699 693.82996 997.21802 9.2197031e-39
3758.22 560.02002 1007.01 9.2197031e-39
3758.6299 821.65002 1007.12 9.2197031e-39
3799.9299 537.60999 1018.19 9.2197031e-39
3779.22 753.90002 1012.64 9.2197031e-39
3821.1001 -297.35599 1023.86 9.2197031e-39
3822.3701 -263.375 1024.2 9.2197031e-39
3825.26 -229.09698 1024.97 9.2197031e-39
3838.78 513.65002 1028.6 9.2197031e-39
3876.5801 488.78003 1038.73 9.2197031e-39
3949.45 1497.1599 1058.25 9.2197031e-39
3990.4099 -3203.3401 1069.23 9.2197031e-39
3974.6201 1466.3 1065 9.2197031e-39
3998.1899 -3159.9199 1071.3101 9.2197031e-39
4040.3 -3138.1899 1082.6 9.2197031e-39
4076.52 -3112.3301 1092.3 9.2197031e-39
4108.4102 -3083.5 1100.85 9.2197031e-39
4137.1699 1798.45 1108.55 9.2197031e-39
4157.7798 -3064.6201 1114.0699 9.2197031e-39
4171.23 1672.5 1117.6801 9.2197031e-39
4254.4302 -3072.1699 1139.97 9.2197031e-39
4301.8501 -3961.8401 1152.6801 9.2197031e-39
4328.4302 2075.1499 1159.8 9.2197031e-39
4364.6201 -4071.3201 1169.5 9.2197031e-39
4375.7798 -3959.6299 1172.48 9.2197031e-39
4435.9102 -3945.75 1188.6 9.2197031e-39
4415.5498 2078.3701 1183.14 9.2197031e-39
4504.7798 -3937.4199 1207.05 9.2197031e-39
4503.4702 -3163.5701 1206.7 9.2197031e-39
4488.2202 2070.8101 1202.62 9.2197031e-39
4549.5 -4479.5801 1219.04 9.2197031e-39
4570.6802 -3925.79 1224.71 9.2197031e-39
4629.2402 -4479.7002 1240.4 9.2197031e-39
4701.5498 2093.49 1259.78 9.2197031e-39
4709.3101 -4478.6602 1261.85 9.2197031e-39
4742.4902 2062.5 1270.75 9.2197031e-39
4788.9302 -4475.8501 1283.1899 9.2197031e-39
5413.6401 -4466.04 1450.58 9.2197031e-39
5496.4399 -4453.8604 1472.77 9.2197031e-39
5514.1802 -4395.77 1477.52 9.2197031e-39
5508.6699 -4322.3896 1476.04 9.2197031e-39
5508.04 -4253.1602 1475.88 9.2197031e-39
5559.7998 -3507.48 1489.74 9.2197031e-39
5558.0801 -3445.52 1489.28 9.2197031e-39
5557.48 -3384.6699 1489.12 9.2197031e-39
5567.9702 -3698.51 1491.9301 9.2197031e-39
5568.1899 -3635.8 1491.99 9.2197031e-39
5568.6299 -3573.76 1492.11 9.2197031e-39
5564.1401 -3327.8401 1490.91 9.2197031e-39
5561.4702 -3266.95 1490.1899 9.2197031e-39
5587.3198 -3219.73 1497.12 9.2197031e-39
5760.1699 1599.8 1543.4301 9.2197031e-39
6708.3198 -819.04297 1797.49 9.2197031e-39
6890.5298 -883.52698 1846.3101 9.2197031e-39
6899.77 1312.4301 1848.79 9.2197031e-39
6890.8901 1376.1499 1846.41 9.2197031e-39
7125.6899 -3483.8 1909.3199 9.2197031e-39
7122.1001 -3195.8101 1908.36 9.2197031e-39
7111.25 -1015.979 1905.45 9.2197031e-39
7123.2998 -953.16101 1908.6801 9.2197031e-39
7123.2998 -446.83899 1908.6801 9.2197031e-39
7111.25 -384.021 1905.45 9.2197031e-39
7137.2598 -3858.49 1912.42 9.2197031e-39
7139.6099 -3784.4299 1913.05 9.2197031e-39
7132.3198 -3706.74 1911.1 9.2197031e-39
7135.0098 -3633.9199 1911.8199 9.2197031e-39
7135.21 -3560.54 1911.87 9.2197031e-39
7135.3101 -3415.1599 1911.9 9.2197031e-39
7134.3301 -3342.79 1911.64 9.2197031e-39
7132.6699 -3270.6499 1911.1899 9.2197031e-39
7147.2002 -1852.14 1915.09 9.2197031e-39
7148.0498 -1787.29 1915.3101 9.2197031e-39
7147.3799 -1722.37 1915.13 9.2197031e-39
7148.0698 -1657.801 1915.3199 9.2197031e-39
7153.9502 -1594.0339 1916.9 9.2197031e-39
7337.0698 -3199.73 1965.96 9.2197031e-39
7532.4102 -3193.1499 2018.3 9.2197031e-39
7554.9302 -296.647 2024.34 9.2197031e-39
7551.25 -229.49899 2023.35 9.2197031e-39
7557.6001 -161.62 2025.05 9.2197031e-39
7552.7798 -94.453003 2023.76 9.2197031e-39
7715.2798 -3179.02 2067.3 9.2197031e-39
7705.3999 -3100.6599 2064.6599 9.2197031e-39
8068.9502 -3137.4199 2162.0701 9.2197031e-39
8419.7402 -3163.6499 2256.0601 9.2197031e-39
