# .PCD v0.7 - Point Cloud Data file format
VERSION 0.7
FIELDS x y z rgb
SIZE 4 4 4 4
TYPE F F F F
COUNT 1 1 1 1
WIDTH 292
HEIGHT 1
VIEWPOINT 0 0 0 1 0 0 0
POINTS 292
DATA ascii
1411.3 1493.6599 28.019699 9.2197031e-39
1585.5699 -3738.4399 33.839298 9.2197031e-39
1596.8 -3728.05 36.928299 9.2197031e-39
1537.63 -1850.17 35.7435 9.2197031e-39
1537.5449 -1844.75 35.764751 9.2197031e-39
1541.6635 -1844.7233 36.867268 9.2197031e-39
1533.35 -1834.4751 34.720596 9.2197031e-39
1551.3766 -1838.4268 39.516933 9.2197031e-39
1535.84 -1571.4451 37.440399 9.2197031e-39
1535.0934 -1564.4701 37.29533 9.2197031e-39
1543.65 -1566.208 39.575199 9.2197031e-39
1538.16 -1554.092 38.196999 9.2197031e-39
1542.64 -1556.2739 39.3801 9.2197031e-39
1536.46 -1546.796 37.7995 9.2197031e-39
1542.895 -1548.795 39.50795 9.2197031e-39
1532.26 -1533.259 36.780899 9.2197031e-39
1467.45 865.95996 38.157001 9.2197031e-39
1619.46 -3728.98 42.990501 9.2197031e-39
1630.8101 -3724.4399 46.065201 9.2197031e-39
1591.9 -2099.3398 48.334999 9.2197031e-39
1577.12 -1997.85 45.167599 9.2197031e-39
1574.71 -1981.5 44.6507 9.2197031e-39
1577.77 -1976.26 45.5117 9.2197031e-39
1567.6801 -1927.79 43.185299 9.2197031e-39
1584.45 -1904.02 47.862701 9.2197031e-39
1585 -1866.53 48.305099 9.2197031e-39
1556.54 -1841.76 40.875847 9.2197031e-39
1561.5601 -1846 42.186348 9.2197031e-39
1554.8201 -1835.545 40.462551 9.2197031e-39
1560.74 -1837.28 42.035702 9.2197031e-39
1547.29 -1571.38 40.509102 9.2197031e-39
1567.4767 -1576.2866 45.876232 9.2197031e-39
1571.54 -1578.192 46.949299 9.2197031e-39
1548.63 -1565.3584 40.914471 9.2197031e-39
1555.808 -1564.4045 42.844139 9.2197031e-39
1572.925 -1565.3936 47.421349 9.2197031e-39
1547.95 -1555.203 40.811199 9.2197031e-39
1556.5801 -1559.132 43.092751 9.2197031e-39
1566.7921 -1555.5189 45.85564 9.2197031e-39
1573.3 -1552.0869 47.624401 9.2197031e-39
1546.4301 -1548.817 40.453602 9.2197031e-39
1569.12 -1549.582 46.5252 9.2197031e-39
1475.49 870.06995 40.341599 9.2197031e-39
1654.12 -3734.8899 52.228199 9.2197031e-39
1665.64 -3733.1799 55.326599 9.2197031e-39
1601.3101 -2166.1699 50.3326 9.2197031e-39
1611.67 -1973.71 54.611301 9.2197031e-39
1599.14 -1948.65 51.450001 9.2197031e-39
1589.61 -1541.647 52.074501 9.2197031e-39
1506.8 1897.4099 56.7495 9.2197031e-39
1654.0699 -2091.99 65.0438 9.2197031e-39
1661.3 -2098.8 66.926804 9.2197031e-39
1519.34 1962.3201 60.616402 9.2197031e-39
1703.62 -2191.3599 77.537201 9.2197031e-39
1674.77 -2127.8 70.308296 9.2197031e-39
1568.34 1960.98 73.7285 9.2197031e-39
1581.13 1960.6001 77.1511 9.2197031e-39
1751.66 -2304.03 89.524498 9.2197031e-39
1630.11 1959.4299 90.261299 9.2197031e-39
1642.89 1958.77 93.679901 9.2197031e-39
1691.85 1956.76 106.776 9.2197031e-39
1705.13 1965.8101 110.404 9.2197031e-39
1754.11 1961.96 123.492 9.2197031e-39
1767.45 1968.72 127.117 9.2197031e-39
2022.65 -2937.3701 157.16 9.2197031e-39
2020.53 -2910.1399 156.80499 9.2197031e-39
2032.76 -2903.4099 160.132 9.2197031e-39
2043.95 -2908.27 163.093 9.2197031e-39
2060.8701 -2891.4299 167.756 9.2197031e-39
2050.8501 -2889.4299 165.08701 9.2197031e-39
2095.7 -2932.75 176.76199 9.2197031e-39
2105.1299 -2932.71 179.28799 9.2197031e-39
2141.29 -2973.02 188.658 9.2197031e-39
2170.8201 -3012.79 196.258 9.2197031e-39
2108.6599 -443.99701 199.66499 9.2197031e-39
2095.905 -418.56598 196.44901 9.2197031e-39
2221.1001 -3055.5801 209.39 9.2197031e-39
2189.3101 -3013.76 201.201 9.2197031e-39
2128.76 -464.87701 204.886 9.2197031e-39
2128.0801 -458.423 204.755 9.2197031e-39
2114.54 -439.621 201.276 9.2197031e-39
2244.615 -3054.075 215.69949 9.2197031e-39
2235.4399 -2993.1299 213.716 9.2197031e-39
2239.46 -2981.97 214.882 9.2197031e-39
2251.5701 -2970.5701 218.215 9.2197031e-39
2175.7998 -473.57648 217.4185 9.2197031e-39
2152 -467.59302 211.08951 9.2197031e-39
2263.3899 -2973.1101 221.35899 9.2197031e-39
2282.51 -2973.3101 226.481 9.2197031e-39
2289.29 -2967.1699 228.342 9.2197031e-39
2195.4399 -491.159 222.541 9.2197031e-39
2217.6499 -496.84399 228.44501 9.2197031e-39
2196.49 -481.89801 222.895 9.2197031e-39
2302.73 -2957.6599 232.01601 9.2197031e-39
2253.25 -533.84998 237.69 9.2197031e-39
2226.6299 -524.97498 230.631 9.2197031e-39
2232.8799 -521.54602 232.33 9.2197031e-39
2255.8301 -522.83502 238.467 9.2197031e-39
2340.0901 -3000.04 241.692 9.2197031e-39
2346.3899 -2978.21 243.55099 9.2197031e-39
2347.1201 -2962.73 243.868 9.2197031e-39
2357.76 -2948.3201 246.82899 9.2197031e-39
2357.6101 -2932.1101 246.916 9.2197031e-39
2359.3301 -2890.1899 247.703 9.2197031e-39
2343.96 -2841.29 243.968 9.2197031e-39
2349.3701 -2834.23 245.47301 9.2197031e-39
2371.78 -2923.27 250.77901 9.2197031e-39
2380.22 -2849.1299 253.619 9.2197031e-39
2298.73 -500.64301 250.133 9.2197031e-39
2302.6101 -501.83701 251.161 9.2197031e-39
2326.0801 -504.263 257.42899 9.2197031e-39
2334.97 -498.25201 259.85699 9.2197031e-39
2431.4199 -1300.74 279.423 9.2197031e-39
2429.75 -1281.881 279.12201 9.2197031e-39
2432.1799 -1284.526 279.754 9.2197031e-39
2424.0701 -1268.475 277.707 9.2197031e-39
2430.3301 -1261.687 279.436 9.2197031e-39
2418.3799 -1247.505 276.34601 9.2197031e-39
2424.3799 -1248.2271 277.948 9.2197031e-39
2416.54 -1231.901 275.974 9.2197031e-39
2415.6799 -1228.606 275.76999 9.2197031e-39
2415.24 -1211.98 275.78201 9.2197031e-39
2413.46 -1209.193 275.328 9.2197031e-39
2411.71 -1189.229 275.013 9.2197031e-39
2421.1499 -1187.619 277.556 9.2197031e-39
2416.345 -1167.0166 276.42902 9.2197031e-39
2406.1499 -1149.564 273.836 9.2197031e-39
2414.74 -1148.079 276.147 9.2197031e-39
2407.6599 -1130.355 274.39001 9.2197031e-39
2408.9099 -1125.658 274.76001 9.2197031e-39
2404.4851 -1107.931 273.71448 9.2197031e-39
2407.76 -1084.5859 274.77399 9.2197031e-39
2408.79 -1079.859 275.086 9.2197031e-39
2403.165 -1062.2225 273.71799 9.2197031e-39
2397.29 -1040.447 272.314 9.2197031e-39
2404.27 -1039.293 274.19199 9.2197031e-39
2403.2849 -1013.183 274.133 9.2197031e-39
2403.645 -987.44849 274.43048 9.2197031e-39
2401.5298 -963.06 274.0535 9.2197031e-39
2394.7852 -942.06549 272.41248 9.2197031e-39
2393.7949 -915.51349 272.354 9.2197031e-39
2395.04 -886.09302 272.91699 9.2197031e-39
2399.0801 -852.979 274.25751 9.2197031e-39
2393.6699 -830.552 272.98499 9.2197031e-39
2392.8201 -826.45001 272.78699 9.2197031e-39
2406.625 -783.47632 276.8215 9.2197031e-39
2403.6802 -753.8924 276.263 9.2197031e-39
2397.04 -724.62451 274.71399 9.2197031e-39
2413.5 -711.96552 279.22 9.2197031e-39
2405.1899 -442.17801 279.10199 9.2197031e-39
2402.6699 -438.02301 278.45999 9.2197031e-39
2438.5701 -1377.746 280.73599 9.2197031e-39
2451.9099 -1369.181 284.37601 9.2197031e-39
2449.72 -1351.021 283.93301 9.2197031e-39
2454.6899 -1352.996 285.24701 9.2197031e-39
2443.3999 -1336.2595 282.354 9.2197031e-39
2436.8601 -1321.5701 280.71701 9.2197031e-39
2438.1001 -1317.269 281.08401 9.2197031e-39
2439.1399 -1301.125 281.48801 9.2197031e-39
2477.6201 -1379.229 291.18399 9.2197031e-39
2500 -1375.7361 297.20499 9.2197031e-39
2546.6299 -1376.275 309.69199 9.2197031e-39
2582.0901 -1369.4719 319.242 9.2197031e-39
2633.6499 -1370.45 333.04199 9.2197031e-39
2654.46 -1369.088 338.62799 9.2197031e-39
2716.76 -3277.8101 340.409 9.2197031e-39
2750.04 -1359.595 364.302 9.2197031e-39
2781.28 -1356.35 372.69299 9.2197031e-39
2838.5 119.26001 399.54199 9.2197031e-39
2915.8101 -1340.176 408.85101 9.2197031e-39
2868.6799 -154.62097 405.48499 9.2197031e-39
2877.79 -133.45203 408.09 9.2197031e-39
2874.01 -92.742004 407.397 9.2197031e-39
2869.5901 -40.143005 406.62201 9.2197031e-39
2877.6899 -18.513 408.96301 9.2197031e-39
2866.23 15.882996 406.16 9.2197031e-39
2866.74 79.367981 406.793 9.2197031e-39
2866.71 91.953003 406.884 9.2197031e-39
2855.6201 129.836 404.20999 9.2197031e-39
2883.23 -70.562012 410.04001 9.2197031e-39
2882.9099 49.39502 410.89001 9.2197031e-39
3059.1899 -3679.05 428.991 9.2197031e-39
3054.02 -3650.9399 427.82501 9.2197031e-39
3060.55 -3611.8201 429.88101 9.2197031e-39
2979.1399 -1330.14 425.89301 9.2197031e-39
3062.23 -3593.1899 430.47601 9.2197031e-39
3060.77 -3545.9099 430.453 9.2197031e-39
3059.4199 -3524.4299 430.26099 9.2197031e-39
3063.1101 -3485.05 431.556 9.2197031e-39
3063.22 -3466 431.733 9.2197031e-39
3071.78 -3433.46 434.28101 9.2197031e-39
3060.8799 -3402.8899 431.60101 9.2197031e-39
3083.8899 -3387.1599 437.88501 9.2197031e-39
3141.8 -3430.8601 453.05499 9.2197031e-39
3255.74 -1550.5901 498.25299 9.2197031e-39
3325.8601 -2819.98 507.12399 9.2197031e-39
3315.0701 -2782.6101 504.52399 9.2197031e-39
3266.6001 -1541.73 501.233 9.2197031e-39
3264.3601 -1517.9829 500.81699 9.2197031e-39
3270.27 -1509.46 502.46701 9.2197031e-39
3268.5701 -1485.494 502.20001 9.2197031e-39
3265.71 -1477.9971 501.492 9.2197031e-39
3264.5701 -1453.8879 501.37399 9.2197031e-39
3271.1399 -1445.085 503.20401 9.2197031e-39
3273.3899 -1420.202 503.99899 9.2197031e-39
3270.27 -1412.856 503.22198 9.2197031e-39
3275.2251 -1383.3425 504.7785 9.2197031e-39
3278.76 -1353.725 505.95801 9.2197031e-39
3268.76 -1347.875 503.32401 9.2197031e-39
3270.6499 -1322.3621 504.02899 9.2197031e-39
3267.1599 -1315.2849 503.14999 9.2197031e-39
3271.4951 -1285.006 504.548 9.2197031e-39
3401.3601 -2821.1101 527.336 9.2197031e-39
3403.8701 -2790.9099 528.24298 9.2197031e-39
3372.78 -1574.009 529.41998 9.2197031e-39
3389.54 -1564.339 533.98297 9.2197031e-39
3484.2 -2823.72 549.50299 9.2197031e-39
3521.6201 -3783.96 552.026 9.2197031e-39
3521.04 -3761.98 552.04303 9.2197031e-39
3518.1101 -3709.21 551.672 9.2197031e-39
3530.95 -3701.3301 555.172 9.2197031e-39
3548.02 -3669.4199 559.992 9.2197031e-39
3496.8799 -2798.21 553.099 9.2197031e-39
3568.51 -3668.8601 565.48499 9.2197031e-39
3542.04 -2809.6299 565.10303 9.2197031e-39
3623.1201 -3672.0901 580.08502 9.2197031e-39
3643.05 -3670.3601 585.43597 9.2197031e-39
3695.99 -3670.01 599.61902 9.2197031e-39
3719.7 -3671.0601 605.961 9.2197031e-39
3731.6899 -3633 609.46997 9.2197031e-39
3719.79 -3602.8799 606.51801 9.2197031e-39
3738.29 -3571.3201 611.71899 9.2197031e-39
3758.9299 -3569.21 617.26398 9.2197031e-39
3803.71 -3539.6001 629.48798 9.2197031e-39
3820.3401 -3572.3601 633.68799 9.2197031e-39
3945.6299 -3220.3 669.99402 9.2197031e-39
3981.75 -3632.5801 676.448 9.2197031e-39
3962.03 -3353.46 673.34698 9.2197031e-39
3975.2 -3344.3301 676.94299 9.2197031e-39
3974.48 -3281.8301 677.23901 9.2197031e-39
4023.96 -3595.5 688.04401 9.2197031e-39
4002 -3559.3 682.44299 9.2197031e-39
4067.1399 -3678.8101 698.95697 9.2197031e-39
4020.9299 -3030.55 691.64301 9.2197031e-39
4041.53 -3025.3201 697.20203 9.2197031e-39
4091.4399 -3009.8501 710.68903 9.2197031e-39
4108.5801 -3002.3201 715.33899 9.2197031e-39
4104.23 -2958.95 714.51202 9.2197031e-39
4112.4502 -2947 716.80701 9.2197031e-39
4254.73 -3481.47 750.742 9.2197031e-39
4244.8999 -2967.6899 752.11902 9.2197031e-39
4287.6299 -2970.8899 763.53998 9.2197031e-39
4301.2598 -2933.99 767.47803 9.2197031e-39
4294.23 -2914.52 765.74701 9.2197031e-39
4707.29 -3939.4399 868.37701 9.2197031e-39
4728.5298 -3930.8501 874.133 9.2197031e-39
5229.3701 -4376.7402 1004.79 9.2197031e-39
5474.48 -4582.5801 1068.84 9.2197031e-39
5610.04 -3425.8799 1114.1801 9.2197031e-39
5606.7798 -3401.4299 1113.49 9.2197031e-39
6910.25 -1912.23 1474.24 9.2197031e-39
6962.0098 -1815.8 1488.85 9.2197031e-39
6962.3901 -1790.6899 1489.15 9.2197031e-39
6954.3701 -1619.1631 1488.34 9.2197031e-39
6940.3398 -1521.339 1485.35 9.2197031e-39
6978.3398 -1717.46 1493.99 9.2197031e-39
6996.3999 -1593.342 1499.8 9.2197031e-39
6987.7202 -1494.646 1498.25 9.2197031e-39
7016.2798 -1890.9 1502.8 9.2197031e-39
7014.0298 -1692.259 1503.75 9.2197031e-39
7172.9102 -3965.5701 1528.55 9.2197031e-39
7168.23 -3932.77 1527.55 9.2197031e-39
7167.3301 -3846.95 1527.98 9.2197031e-39
7163.8398 -3815.1699 1527.3 9.2197031e-39
7161.3101 -3729.8799 1527.29 9.2197031e-39
7164.5498 -3700.99 1528.38 9.2197031e-39
7164.9702 -3588.04 1529.37 9.2197031e-39
7168.7002 -3618.96 1530.13 9.2197031e-39
7167.6001 -3506.3301 1530.72 9.2197031e-39
7169.7798 -3477.71 1531.53 9.2197031e-39
7170.9399 -3396.26 1532.47 9.2197031e-39
7188.4102 -3372.4299 1537.34 9.2197031e-39
7217.6699 -2027.3101 1555.6801 9.2197031e-39
7215.0898 -2000.73 1555.1899 9.2197031e-39
7581.8501 -3401.27 1642.49 9.2197031e-39
7692.77 -3401.1101 1672.2 9.2197031e-39
7790.2002 -3338.6599 1698.78 9.2197031e-39
7784.9702 -3305.96 1697.64 9.2197031e-39
7769.4502 -2172.04 1702.33 9.2197031e-39
7772.3101 -2143.1401 1703.3199 9.2197031e-39
8481.0098 -3385.6499 1883.4399 9.2197031e-39
8631.3398 -3386.8501 1923.6899 9.2197031e-39
