# .PCD v0.7 - Point Cloud Data file format
VERSION 0.7
FIELDS x y z rgb
SIZE 4 4 4 4
TYPE F F F F
COUNT 1 1 1 1
WIDTH 316
HEIGHT 1
VIEWPOINT 0 0 0 1 0 0 0
POINTS 316
DATA ascii
1322.5699 -3900.1001 36.840199 9.2197031e-39
1316.7 -3871.03 31.2078 9.2197031e-39
2337.0601 -2370.1201 35.420898 9.2197031e-39
2349.47 -2373.6802 38.716702 9.2197031e-39
2353.3201 -2370.9302 39.1656 9.2197031e-39
2341.8201 -2361.74 35.235901 9.2197031e-39
2357.385 -2367.585 39.573349 9.2197031e-39
2361.05 -2364.2 39.887798 9.2197031e-39
2343.76 -2354.5632 34.600231 9.2197031e-39
2346.8 -2348.48 34.374802 9.2197031e-39
2958.98 -1410.806 31.3722 9.2197031e-39
2977.9299 -1412.8159 35.894299 9.2197031e-39
2990.1799 -1416.4131 39.161301 9.2197031e-39
2976.26 -1406.756 34.622299 9.2197031e-39
1235.13 -4059.05 40.989498 9.2197031e-39
1274.97 -4038.26 46.776501 9.2197031e-39
1441.5 -3795.49 47.7901 9.2197031e-39
2174.3899 -2695.5601 47.564301 9.2197031e-39
2201.21 -2660.3101 48.297798 9.2197031e-39
2192.7 -2659.4199 46.269501 9.2197031e-39
2227.3301 -2606.8501 46.170898 9.2197031e-39
2252.7 -2570.8301 46.4688 9.2197031e-39
2291.1399 -2486.6602 42.517101 9.2197031e-39
2313.54 -2452.52 42.433701 9.2197031e-39
2343.3201 -2457.8301 49.8601 9.2197031e-39
2320.25 -2432.9102 41.0131 9.2197031e-39
2354.47 -2427.01 47.762402 9.2197031e-39
2353.45 -2412.02 45.306499 9.2197031e-39
2337.5601 -2407.3999 41.078098 9.2197031e-39
2359.76 -2399.49 44.848801 9.2197031e-39
2360.45 -2380.8101 42.223999 9.2197031e-39
2357.71 -2373.52 40.531101 9.2197031e-39
2363.1033 -2372.9734 41.6506 9.2197031e-39
2363.2 -2365.97 40.629902 9.2197031e-39
2518.73 -2169.5801 46.090698 9.2197031e-39
2537.6201 -2160.53 48.954601 9.2197031e-39
2529.5701 -2159.96 47.075298 9.2197031e-39
2534.98 -2153.53 47.326 9.2197031e-39
2514.7869 -2144.02 41.408669 9.2197031e-39
2523.5249 -2141.2849 42.950401 9.2197031e-39
2548.28 -2147.4199 49.381001 9.2197031e-39
2517.45 -2134.96 40.654598 9.2197031e-39
2520.9951 -2136.7749 41.715248 9.2197031e-39
2537.6567 -2134.7366 45.126537 9.2197031e-39
2577.8201 -2073.78 45.011902 9.2197031e-39
2604.7 -2050.0698 47.477402 9.2197031e-39
2609.8899 -2036.49 46.615002 9.2197031e-39
2997.53 -1414.437 40.505299 9.2197031e-39
3012.77 -1414.2051 43.867699 9.2197031e-39
3020.8101 -1411.6909 45.2854 9.2197031e-39
3035.5901 -1412.547 48.705898 9.2197031e-39
1452.53 -3815.29 53.192799 9.2197031e-39
2330.52 -2519.3701 56.159199 9.2197031e-39
2339.25 -2493.1001 54.197498 9.2197031e-39
2588.8201 -2104.99 52.105301 9.2197031e-39
2590.6899 -2093.9302 50.878399 9.2197031e-39
2639.29 -2075.75 59.007301 9.2197031e-39
2633.8201 -2067.96 56.629501 9.2197031e-39
2645.4099 -2065.3198 58.819302 9.2197031e-39
2648.76 -2055.23 58.066299 9.2197031e-39
2656.45 -1991.54 50.3092 9.2197031e-39
2703.6001 -1933.8 52.23 9.2197031e-39
2730.52 -1906 54.095901 9.2197031e-39
2743.5352 -1875.105 52.403 9.2197031e-39
2771.8501 -1850.09 54.992599 9.2197031e-39
2765.3101 -1843.98 52.627998 9.2197031e-39
2797.24 -1795.47 52.529598 9.2197031e-39
2826.8 -1759.51 53.770599 9.2197031e-39
2859.25 -1707.5601 53.277199 9.2197031e-39
2932.4399 -1616.954 56.113998 9.2197031e-39
3059.23 -1410.661 53.694698 9.2197031e-39
3065.6001 -1411.058 55.173698 9.2197031e-39
3081.2 -1411.6909 58.7467 9.2197031e-39
3044.3301 -1409.52 50.205601 9.2197031e-39
2319.8999 -2583.76 63.368401 9.2197031e-39
2666.8101 -2055.1001 62.068298 9.2197031e-39
2698.53 -2040.84 67.018402 9.2197031e-39
3081.8899 -1419.271 60.025799 9.2197031e-39
2296.1101 -2673.97 71.482002 9.2197031e-39
2733.26 -2016.78 71.1819 9.2197031e-39
2265.96 -2827.8301 87.642998 9.2197031e-39
2226.4199 -3000.1499 104.458 9.2197031e-39
2236.49 -3085.22 119.356 9.2197031e-39
2235.0901 -3074.3999 117.433 9.2197031e-39
2226.28 -3055.22 112.617 9.2197031e-39
2265.3501 -3091.79 126.763 9.2197031e-39
2251.24 -3086.6799 122.859 9.2197031e-39
2262.96 -3084.0901 125.086 9.2197031e-39
2277.6299 -3085.1399 128.51199 9.2197031e-39
2248.8601 -3079.8601 121.314 9.2197031e-39
2317.2749 -3015.6951 127.0215 9.2197031e-39
2329.3999 -3013.6699 129.422 9.2197031e-39
2279.3 -3098.6299 130.89 9.2197031e-39
2298.79 -3064.8501 130.21201 9.2197031e-39
2358.77 -3023.22 137.38699 9.2197031e-39
2368.9199 -3025.5601 139.99699 9.2197031e-39
2332.3899 -3014.96 130.28101 9.2197031e-39
2342.8999 -3012.6001 132.272 9.2197031e-39
2356.01 -3016.22 135.733 9.2197031e-39
2346.26 -3009.8101 132.60699 9.2197031e-39
2412.5601 -2949.8601 138.467 9.2197031e-39
2423 -2924.8101 137.0685 9.2197031e-39
2443.99 -2895.8799 137.444 9.2197031e-39
2446.02 -2888.3201 136.774 9.2197031e-39
2454.6799 -2884.99 138.207 9.2197031e-39
2276.4199 -3199.04 145.181 9.2197031e-39
2371.8601 -3033.4299 141.825 9.2197031e-39
2383.7251 -3038.53 145.22751 9.2197031e-39
2409.6699 -2995.74 144.645 9.2197031e-39
2435.47 -2941.365 142.3105 9.2197031e-39
2471.53 -2918.26 146.912 9.2197031e-39
2458.99 -2909.8201 142.86 9.2197031e-39
2467.4199 -2902.4399 143.642 9.2197031e-39
2398.6201 -3096.6599 157.192 9.2197031e-39
2394.8501 -3086.0601 154.776 9.2197031e-39
2483.78 -2949.03 154.217 9.2197031e-39
2493.25 -3006.77 164.91701 9.2197031e-39
2523.1399 -3174.2 196.47701 9.2197031e-39
2527.0701 -3164.9399 195.97501 9.2197031e-39
2551.0701 -3216.72 209.026 9.2197031e-39
2569.6101 -3223.2 214.12399 9.2197031e-39
2561.9199 -3210.4399 210.51199 9.2197031e-39
3956.52 -1303.7271 237.789 9.2197031e-39
4001.3 -1298.8049 247.03799 9.2197031e-39
4023.05 -1300.89 252.19501 9.2197031e-39
4056.0701 -1304.002 260.01801 9.2197031e-39
4093.52 -1298.199 267.50299 9.2197031e-39
4189.8599 -1284.168 286.88901 9.2197031e-39
4181.6299 -1272.3721 283.29999 9.2197031e-39
4195.0098 -1342.968 296.78101 9.2197031e-39
4188.23 -1323.8979 292.43301 9.2197031e-39
4189.98 -1306.9829 290.30801 9.2197031e-39
4192.3701 -1397.791 304.34601 9.2197031e-39
4202.02 -1377.598 303.49399 9.2197031e-39
4231.1401 -1341.05 304.54999 9.2197031e-39
4258.7598 -1389.084 317.849 9.2197031e-39
4305.79 -1384.016 327.578 9.2197031e-39
2724.8101 -3822.8101 337.89001 9.2197031e-39
2730.0701 -3763.8799 330.297 9.2197031e-39
2741 -3764.27 332.793 9.2197031e-39
2758.45 -3765.77 336.90302 9.2197031e-39
2768.1499 -3760.1599 338.23199 9.2197031e-39
3385.0601 -2838.1101 338.60901 9.2197031e-39
3399.1599 -2822.3701 339.41 9.2197031e-39
4204.3701 -1594.554 336.284 9.2197031e-39
4361.7998 -1382.051 339.76901 9.2197031e-39
2726.01 -3887.9199 347.83801 9.2197031e-39
2784.21 -3755.6899 341.146 9.2197031e-39
2796.26 -3759.3601 344.37799 9.2197031e-39
2812.76 -3756.54 347.638 9.2197031e-39
3416.99 -2845.1899 346.77701 9.2197031e-39
3426.1899 -2825.99 345.97299 9.2197031e-39
2704.71 -3936.8 350.362 9.2197031e-39
2842.8301 -3761.5601 355.08499 9.2197031e-39
2824.48 -3758.03 350.46899 9.2197031e-39
2852.52 -3755.22 356.30301 9.2197031e-39
4350.04 -1520.447 357.73001 9.2197031e-39
4413.71 -1376.7261 350.548 9.2197031e-39
2725.3201 -3983.8301 361.95001 9.2197031e-39
2869.8201 -3754.72 360.08401 9.2197031e-39
2880.9199 -3752.8201 362.276 9.2197031e-39
2909.71 -3750.8101 368.39401 9.2197031e-39
2896.74 -3747.3899 364.995 9.2197031e-39
3481.0801 -2844.96 361.02899 9.2197031e-39
4498.3501 -1364.661 367.61899 9.2197031e-39
2928.95 -3755.3201 373.35199 9.2197031e-39
2957.96 -3752.4399 379.38901 9.2197031e-39
2938.9299 -3749.1699 374.66101 9.2197031e-39
3124.3301 -3502.4099 379.28799 9.2197031e-39
3129.6599 -3481.6499 377.38901 9.2197031e-39
3133.1201 -3466.22 375.86499 9.2197031e-39
3134.3501 -3439.74 372.20099 9.2197031e-39
3141.9099 -3431.8201 372.70801 9.2197031e-39
3156.8899 -3428.5701 375.564 9.2197031e-39
3168.5701 -3426.99 377.931 9.2197031e-39
2970.3201 -3752.4399 382.14401 9.2197031e-39
2987.3999 -3749.9099 385.57599 9.2197031e-39
2999.52 -3748.7 388.09601 9.2197031e-39
3126.1101 -3560.0801 388.26099 9.2197031e-39
3128.9399 -3533.1599 384.88699 9.2197031e-39
3033.25 -3755.21 396.58499 9.2197031e-39
3017.6899 -3748.6101 392.133 9.2197031e-39
3121.8999 -3635.5901 398.55399 9.2197031e-39
3124.3201 -3614.79 395.99899 9.2197031e-39
3126.6499 -3585.0601 392.09698 9.2197031e-39
3051.1699 -3753.8899 400.38199 9.2197031e-39
3081.5 -3750.4099 406.625 9.2197031e-39
3060.0701 -3743.97 400.89001 9.2197031e-39
3088.3401 -3735.8 405.97501 9.2197031e-39
3120.3201 -3696.05 407.19299 9.2197031e-39
3117.3899 -3662.9099 401.61099 9.2197031e-39
3109.48 -3741.02 411.46301 9.2197031e-39
3126.1699 -3747.3501 416.12399 9.2197031e-39
4773.1802 -1270.606 414.88699 9.2197031e-39
3277.8701 -3568.3 423.31 9.2197031e-39
4649.8999 -1605.818 437.26099 9.2197031e-39
4681.9399 -1615.515 445.84399 9.2197031e-39
4717.27 -1629.854 455.853 9.2197031e-39
4982.27 -1264.921 460.64499 9.2197031e-39
5023.0801 -1220.8621 463.19 9.2197031e-39
5045.5298 -1188.655 463.40399 9.2197031e-39
3592.26 -3738.05 518.62701 9.2197031e-39
3602.53 -3726 519.12701 9.2197031e-39
3621.8799 -3695.6201 518.92102 9.2197031e-39
3594.28 -3797.3999 527.90399 9.2197031e-39
3594.3799 -3771.52 524.078 9.2197031e-39
3617.3601 -3714.5801 520.73297 9.2197031e-39
3649.55 -3699.5801 525.677 9.2197031e-39
5051.7202 -1612.5811 527.83002 9.2197031e-39
3594.6001 -3857.3301 536.89001 9.2197031e-39
3594.28 -3829.7 532.70697 9.2197031e-39
3673.45 -3703.1699 531.53802 9.2197031e-39
3702.71 -3707.9099 538.76398 9.2197031e-39
4108.8999 -3083.0901 536.37598 9.2197031e-39
4106.9702 -3063.1899 532.98798 9.2197031e-39
4123.3101 -3051.97 534.96198 9.2197031e-39
4142.04 -3041.97 537.64899 9.2197031e-39
4198.21 -2971.72 539.71997 9.2197031e-39
5084.2998 -1631.7361 537.93799 9.2197031e-39
3588.5601 -3946.76 548.84198 9.2197031e-39
3588.1899 -3910.6599 543.39203 9.2197031e-39
3593.6599 -3889.96 541.53198 9.2197031e-39
3723.1201 -3706.4399 543.09497 9.2197031e-39
3744.8601 -3701.8999 547.26501 9.2197031e-39
3756.8899 -3690.6399 548.27197 9.2197031e-39
3818.5801 -3601.1899 548.71802 9.2197031e-39
4181.21 -3040.6299 546.17798 9.2197031e-39
4201.6899 -3030.74 549.27301 9.2197031e-39
4210 -3014.8201 548.75702 9.2197031e-39
4201.8198 -2992.49 543.61298 9.2197031e-39
4211.9502 -2958.8301 540.867 9.2197031e-39
5087.48 -1653.255 541.849 9.2197031e-39
3579.1799 -3999.8799 554.65198 9.2197031e-39
3589.55 -3977.98 553.70502 9.2197031e-39
3777.9299 -3685.01 552.12299 9.2197031e-39
3791.8899 -3675.5 553.82202 9.2197031e-39
3797.3301 -3653.5801 551.77197 9.2197031e-39
3807.7 -3640.3999 552.12598 9.2197031e-39
3820.21 -3626.01 552.77399 9.2197031e-39
3834.1899 -3590.1001 550.54901 9.2197031e-39
3855.3899 -3587.1399 554.83502 9.2197031e-39
3878.6001 -3534.8601 552.23401 9.2197031e-39
4058.3701 -3273.52 553.435 9.2197031e-39
4125.9902 -3170.48 553.18298 9.2197031e-39
4125.9399 -3150.3899 550.18298 9.2197031e-39
4136.7998 -3136.29 550.50702 9.2197031e-39
4162.1602 -3129.49 555.14899 9.2197031e-39
3897.97 -3600.54 566.31799 9.2197031e-39
3895.0701 -3574.8 561.84198 9.2197031e-39
4058.03 -3380.8301 569.31799 9.2197031e-39
4079.6201 -3308.48 563.37 9.2197031e-39
4308.9502 -2977.5 565.263 9.2197031e-39
4388.9102 -2948.1799 578.72302 9.2197031e-39
3970.55 -3592.53 581.30402 9.2197031e-39
4087.3899 -3423.1399 582.15399 9.2197031e-39
4212.8799 -3238.8101 582.711 9.2197031e-39
4388.8301 -2988.6101 584.71899 9.2197031e-39
4386.04 -2966.8201 580.85602 9.2197031e-39
4404.9199 -2933.22 580.06799 9.2197031e-39
4094.79 -3596.79 609.62799 9.2197031e-39
4113.5801 -3561.8301 608.61798 9.2197031e-39
5465.1802 -1601.1321 618.28101 9.2197031e-39
4102.3398 -3679.1101 623.552 9.2197031e-39
4147.2002 -3691.7 635.42401 9.2197031e-39
4161.4502 -3675.76 636.23102 9.2197031e-39
5519.3301 -1646.275 637.065 9.2197031e-39
4258.52 -3621.6201 649.815 9.2197031e-39
5536.9902 -1699.363 648.896 9.2197031e-39
5562.8398 -1664.46 649.46698 9.2197031e-39
4230.8701 -3678.5601 652.11902 9.2197031e-39
5539.4502 -1725.1 653.27197 9.2197031e-39
5702.6699 -1579.479 667.99402 9.2197031e-39
4439.1201 -3617.5901 689.46899 9.2197031e-39
4431.9102 -3586.79 683.28198 9.2197031e-39
4446.7402 -3569.6201 684.034 9.2197031e-39
5811.9302 -2015.62 757.21002 9.2197031e-39
5815.46 -1983.61 753.237 9.2197031e-39
5820.3101 -2043.64 763.24597 9.2197031e-39
5845.5698 -2074.1602 773.414 9.2197031e-39
5864.1602 -2102.28 781.74103 9.2197031e-39
5900.1401 -2162.6201 798.73297 9.2197031e-39
5883.0601 -2133.75 790.63202 9.2197031e-39
5924.3701 -2194.6201 808.89203 9.2197031e-39
5951.6299 -2224.21 819.36902 9.2197031e-39
4805.75 -3964.75 822.815 9.2197031e-39
5979.2202 -2257.0601 830.40503 9.2197031e-39
6017.6001 -2287.8901 843.54199 9.2197031e-39
5154.1401 -4252.77 943.30402 9.2197031e-39
7356.1099 -1517.506 1027.3101 9.2197031e-39
7354.2002 -1475.0291 1020.57 9.2197031e-39
7355.0898 -1563.375 1033.91 9.2197031e-39
7354.4399 -1651.619 1046.88 9.2197031e-39
7356.21 -1605.8821 1040.48 9.2197031e-39
7354.79 -1694.1421 1053.29 9.2197031e-39
7360.6001 -1781.45 1067.5699 9.2197031e-39
7362 -1738.75 1061.53 9.2197031e-39
5523.7998 -4612.0703 1079.13 9.2197031e-39
7367.0801 -1826.15 1075.66 9.2197031e-39
7961.6299 -2365.97 1288.46 9.2197031e-39
7293.54 -3417.23 1295.89 9.2197031e-39
7282.8901 -3507.52 1306.9399 9.2197031e-39
7284.9102 -3461.29 1300.52 9.2197031e-39
7337.29 -3380.9299 1300.24 9.2197031e-39
7284.6499 -3554.6599 1314.35 9.2197031e-39
7279.8599 -3647.6899 1327.12 9.2197031e-39
7287.4102 -3602.6001 1322.09 9.2197031e-39
7276.21 -3694.1499 1333.21 9.2197031e-39
7277.1802 -3790.25 1347.72 9.2197031e-39
7283.5298 -3744.2 1342.29 9.2197031e-39
7277.0698 -3838.6499 1354.89 9.2197031e-39
7271.73 -3885.3701 1360.65 9.2197031e-39
7667.1802 -3408.23 1377.83 9.2197031e-39
7898.5601 -3305.73 1414.16 9.2197031e-39
7885.71 -3405.3401 1426.11 9.2197031e-39
7914.8599 -3360.3601 1425.92 9.2197031e-39
8257.2305 -3321.6399 1496.47 9.2197031e-39
