# .PCD v0.7 - Point Cloud Data file format
VERSION 0.7
FIELDS x y z rgb
SIZE 4 4 4 4
TYPE F F F F
COUNT 1 1 1 1
WIDTH 304
HEIGHT 1
VIEWPOINT 0 0 0 1 0 0 0
POINTS 304
DATA ascii
2504.05 -3275.47 39.256199 9.2197031e-39
2516.1799 -3208.47 39.262501 9.2197031e-39
2509.29 -3152.72 34.7897 9.2197031e-39
2516.9299 -3099.27 34.256401 9.2197031e-39
2516.46 -3031.1201 30.885799 9.2197031e-39
2655.3301 -2444.9399 39.5765 9.2197031e-39
2658.28 -2427.9399 39.544201 9.2197031e-39
2660.77 -2416.8901 39.674301 9.2197031e-39
2663.03 -2409.8 39.932899 9.2197031e-39
2831.24 -1440.037 38.084099 9.2197031e-39
2814.875 -1435.791 33.567398 9.2197031e-39
2826.1299 -1439.032 36.690399 9.2197031e-39
2533.45 -3187.76 42.828999 9.2197031e-39
2541.72 -3138.3301 42.655399 9.2197031e-39
2589.46 -2853.1799 41.658901 9.2197031e-39
2597.46 -2787.54 40.639 9.2197031e-39
2612.3799 -2727.9302 41.7341 9.2197031e-39
2614.04 -2709.8501 41.309299 9.2197031e-39
2624.6899 -2675.8301 42.498299 9.2197031e-39
2625.9299 -2656.6802 41.9114 9.2197031e-39
2633.9199 -2642.4102 43.3395 9.2197031e-39
2634.77 -2622.21 42.6012 9.2197031e-39
2642.22 -2604.8198 43.737099 9.2197031e-39
2642.01 -2596.54 43.286999 9.2197031e-39
2648.54 -2587.04 44.556 9.2197031e-39
2649.45 -2536.78 42.401001 9.2197031e-39
2683.1001 -2500.6699 49.553398 9.2197031e-39
2658 -2447.27 40.392502 9.2197031e-39
2673.46 -2432.51 43.764801 9.2197031e-39
2668.79 -2423.4102 42.100399 9.2197031e-39
2670.9399 -2425.9651 42.788353 9.2197031e-39
2681.71 -2420.6899 45.3773 9.2197031e-39
2664.8774 -2416.0176 40.716148 9.2197031e-39
2682.4399 -2402.01 44.679501 9.2197031e-39
2717.7268 -2145.4434 41.760601 9.2197031e-39
2724.2 -2140.4551 43.229698 9.2197031e-39
2744.3799 -2145.5801 48.795097 9.2197031e-39
2718.4099 -2134.5 41.419201 9.2197031e-39
2725.865 -2134.615 43.390602 9.2197031e-39
2732.23 -2133.1499 44.9995 9.2197031e-39
2731.47 -2095.47 43.004299 9.2197031e-39
2741.3701 -2069.8999 44.3964 9.2197031e-39
2742.46 -2059.98 44.2113 9.2197031e-39
2755.1201 -2024.79 45.871601 9.2197031e-39
2779.29 -1954.2 48.881802 9.2197031e-39
2844.4751 -1434.2505 41.29805 9.2197031e-39
2862.8201 -1430.824 45.972401 9.2197031e-39
2876.8999 -1434.4341 49.856701 9.2197031e-39
2857.6799 -1429.688 44.563499 9.2197031e-39
2874.26 -1423.5549 48.641602 9.2197031e-39
2694.46 -2563.54 55.5452 9.2197031e-39
2687.1599 -2548.8198 52.918499 9.2197031e-39
2762.8899 -2077.97 50.456001 9.2197031e-39
2779.29 -2055.4651 53.706348 9.2197031e-39
2795.1599 -2034.97 56.915901 9.2197031e-39
2796.25 -1901.4399 50.8414 9.2197031e-39
2803.27 -1872.4301 51.308899 9.2197031e-39
2815.6399 -1826.5699 52.386902 9.2197031e-39
2825.1799 -1787.86 53.0578 9.2197031e-39
2836.6599 -1738.61 53.7374 9.2197031e-39
2852.4099 -1677.769 54.9925 9.2197031e-39
2865.5601 -1615.506 55.4935 9.2197031e-39
2878.05 -1559.947 56.139301 9.2197031e-39
2891.78 -1486.4971 56.260502 9.2197031e-39
2896.3999 -1452.619 55.864101 9.2197031e-39
2889.5701 -1443.114 53.611698 9.2197031e-39
2885.8 -1437.046 52.329201 9.2197031e-39
2716.6001 -2690.22 67.419502 9.2197031e-39
2703.0701 -2640.23 61.469398 9.2197031e-39
2828.9399 -1981.79 63.288898 9.2197031e-39
2850.4399 -1952.14 67.544502 9.2197031e-39
2741.25 -2804.28 79.351501 9.2197031e-39
2723.1799 -2738.97 71.476303 9.2197031e-39
2863.1001 -1937.51 70.187103 9.2197031e-39
2914.8501 -1861.09 80.191498 9.2197031e-39
2930.5901 -1845.03 83.574799 9.2197031e-39
2955.25 -1813.96 88.598503 9.2197031e-39
2964.72 -1809.42 90.879601 9.2197031e-39
2992.29 -1775.5699 96.536003 9.2197031e-39
2917.74 -3766.3401 171.72301 9.2197031e-39
2938.98 -3761.72 177.105 9.2197031e-39
2943.8101 -3765.02 178.536 9.2197031e-39
2973.8 -3781.73 187.23801 9.2197031e-39
2968.4199 -3776.6101 185.576 9.2197031e-39
3345.7 -1624.088 182.506 9.2197031e-39
3346.3501 -1616.192 182.30099 9.2197031e-39
3454.79 -1172.559 189.758 9.2197031e-39
3453.8899 -1161.734 189.006 9.2197031e-39
3003.3401 -3792.9399 195.563 9.2197031e-39
2997.1599 -3785.0601 193.55701 9.2197031e-39
3471.5801 -1286.499 199.61501 9.2197031e-39
3467.4399 -1256.697 197.104 9.2197031e-39
3475.71 -1257.259 199.31 9.2197031e-39
3464.1599 -1235.871 195.246 9.2197031e-39
3461.3301 -1228.334 194.13901 9.2197031e-39
3461.6799 -1201.905 192.97301 9.2197031e-39
3457.46 -1195.9189 191.575 9.2197031e-39
3056.1899 -3792.915 209.49649 9.2197031e-39
3027.2451 -3787.6101 201.61151 9.2197031e-39
3485.01 -1347.114 206.04201 9.2197031e-39
3488.1201 -1333.786 206.229 9.2197031e-39
3477.27 -1323.579 202.881 9.2197031e-39
3476.8999 -1313.894 202.323 9.2197031e-39
3471.52 -1297.0129 200.10001 9.2197031e-39
3081.1699 -3790.5901 215.97301 9.2197031e-39
3084.3799 -3785.55 216.578 9.2197031e-39
3137.6699 -3544.1101 219.12801 9.2197031e-39
3142.8799 -3503.3401 218.558 9.2197031e-39
3139.22 -3484.3501 216.69 9.2197031e-39
3148.9399 -3453.6001 217.78799 9.2197031e-39
3503.9648 -1353.1436 211.32751 9.2197031e-39
3530.4299 -1351.7109 218.239 9.2197031e-39
3105.51 -3777.6699 221.77499 9.2197031e-39
3110.04 -3777.3 222.953 9.2197031e-39
3134.49 -3694.1699 225.437 9.2197031e-39
3134.3201 -3680.51 224.743 9.2197031e-39
3135.5601 -3619.6399 222.168 9.2197031e-39
3135.9099 -3608.8501 221.74899 9.2197031e-39
3139.4399 -3559.49 220.326 9.2197031e-39
3172.7451 -3452.9551 224.03349 9.2197031e-39
3549.0701 -1363.8669 223.73199 9.2197031e-39
3552.3301 -1369.9619 224.883 9.2197031e-39
3540.6299 -1350.629 220.87601 9.2197031e-39
3137.8701 -3790.8601 230.937 9.2197031e-39
3139.78 -3781.8401 231.00999 9.2197031e-39
3201.72 -3458.5901 231.94299 9.2197031e-39
3407.9099 -2864.8899 258.02499 9.2197031e-39
3410.3201 -2845.25 257.724 9.2197031e-39
3670.05 -1374.009 256.116 9.2197031e-39
3280.02 -3640.5 261.255 9.2197031e-39
3422.3301 -2898.8899 263.44601 9.2197031e-39
3416.75 -2868.05 260.50601 9.2197031e-39
3424.6101 -2852.3899 261.832 9.2197031e-39
3710.22 -1347.947 265.46701 9.2197031e-39
3729.04 -1354.4551 270.73999 9.2197031e-39
3740.4399 -1354.0959 273.729 9.2197031e-39
3771.47 -1351.165 281.771 9.2197031e-39
3783.73 -1350.4661 284.97 9.2197031e-39
3815.0901 -1348.519 293.14499 9.2197031e-39
3835.1799 -1342.0291 298.133 9.2197031e-39
3867.6899 -1340.5859 306.63699 9.2197031e-39
3880.1699 -1340.533 309.92401 9.2197031e-39
3609.6299 -3048.46 319.95999 9.2197031e-39
3920.0901 -1334.859 320.181 9.2197031e-39
3933.47 -1334.568 323.69501 9.2197031e-39
3973.02 -1330.746 333.94199 9.2197031e-39
3986.5 -1330.8159 337.50101 9.2197031e-39
3627.54 -3743.6101 357.79901 9.2197031e-39
3998.4299 -1630.947 354.94299 9.2197031e-39
4061.26 -1304.349 355.95099 9.2197031e-39
3644.95 -3759.6799 363.15799 9.2197031e-39
4092.8 -1292.766 363.715 9.2197031e-39
4098.2598 -1560.5969 377.914 9.2197031e-39
4104.1802 -1549.124 378.92899 9.2197031e-39
3691.8101 -3891.25 381.78101 9.2197031e-39
4218.4702 -1386.629 401.32501 9.2197031e-39
4275.8301 -1364.219 415.38199 9.2197031e-39
4286.0498 -1320.61 415.99701 9.2197031e-39
3917.03 -3794.96 436.57901 9.2197031e-39
3914.21 -3748.29 433.61099 9.2197031e-39
3906 -3728.53 430.50699 9.2197031e-39
3935.98 -3612.78 432.89801 9.2197031e-39
3804.71 -4689.0601 449.561 9.2197031e-39
3948.97 -3736.1599 442.20099 9.2197031e-39
3957.3501 -3735.53 444.38 9.2197031e-39
3978.2 -3666.8301 446.60501 9.2197031e-39
4425.8198 -1228.131 448.448 9.2197031e-39
4452.73 -1093.038 449.10599 9.2197031e-39
4440.6099 -1089.139 445.72601 9.2197031e-39
3811.8101 -4682.9502 451.14099 9.2197031e-39
3992.28 -3732.6399 453.452 9.2197031e-39
4003.3799 -3734.6299 456.474 9.2197031e-39
4067.8799 -3311.23 453.311 9.2197031e-39
4074 -3307.8799 454.763 9.2197031e-39
4124.2002 -3091.8501 457.707 9.2197031e-39
4129.7798 -3087.76 458.98401 9.2197031e-39
4379.75 -1638.4861 455.85001 9.2197031e-39
4430.8398 -1357.7949 455.94901 9.2197031e-39
4435.04 -1345.2209 456.45499 9.2197031e-39
4441.4302 -1312.311 456.57401 9.2197031e-39
4428.1499 -1308.853 452.90799 9.2197031e-39
4445.3301 -1185.3569 451.552 9.2197031e-39
4445.9902 -1173.5969 451.168 9.2197031e-39
4462.8101 -1131.051 453.57501 9.2197031e-39
4454.9199 -1124.3721 451.177 9.2197031e-39
3857.9299 -4692.3203 463.74899 9.2197031e-39
3865.9099 -4687.77 465.63599 9.2197031e-39
3894.24 -4543.79 466.246 9.2197031e-39
3902.24 -4484.25 465.51901 9.2197031e-39
3910.4299 -4481.2197 467.534 9.2197031e-39
4132.79 -3204.25 465.328 9.2197031e-39
4134.5698 -3197.76 465.48999 9.2197031e-39
4140.4102 -3172.3 465.815 9.2197031e-39
4136.2598 -3162.27 464.242 9.2197031e-39
4155.77 -3145.27 468.577 9.2197031e-39
4157.3198 -3138.6899 468.67401 9.2197031e-39
4145.2197 -3065.3301 461.98798 9.2197031e-39
3911.6299 -4694.3896 478.00601 9.2197031e-39
3919.1799 -4688.7402 479.72699 9.2197031e-39
3926.05 -4621.4297 478.33301 9.2197031e-39
3951.6699 -4481.46 478.42001 9.2197031e-39
4028.3301 -3941.6399 472.91501 9.2197031e-39
4092.02 -3734.8101 479.85501 9.2197031e-39
4202.54 -3064.4099 477.056 9.2197031e-39
4208.0898 -3059.8501 478.30499 9.2197031e-39
4202.1802 -3029.45 475.297 9.2197031e-39
4197.2002 -3019.71 473.51999 9.2197031e-39
4203.7402 -2996 474.116 9.2197031e-39
4205.6001 -2989.6399 474.30301 9.2197031e-39
4218.7798 -2969.0901 476.798 9.2197031e-39
4447.1899 -1640.395 473.72299 9.2197031e-39
4453.2598 -1647.473 475.66101 9.2197031e-39
3963.8999 -4484.9902 481.81201 9.2197031e-39
4095.8601 -3728.46 480.564 9.2197031e-39
4182.9102 -3354.8799 485.71899 9.2197031e-39
4196.3799 -3356.03 489.328 9.2197031e-39
4202.1499 -3327.5701 489.49301 9.2197031e-39
4197.9902 -3316.4199 487.86499 9.2197031e-39
4198.27 -3284.9199 486.43701 9.2197031e-39
4206.0498 -3281.8899 488.345 9.2197031e-39
4486.7202 -1662.8311 485.21399 9.2197031e-39
4499.1802 -1667.9919 488.74799 9.2197031e-39
4020.46 -4491.6899 497.04599 9.2197031e-39
4008.5601 -4489.3398 493.79599 9.2197031e-39
4020.4199 -4423.4502 493.785 9.2197031e-39
4146.5801 -3732.6201 494.138 9.2197031e-39
4292.1699 -2994.49 497.35999 9.2197031e-39
4192.8398 -3730.8301 506.25101 9.2197031e-39
4204.4702 -3731.4399 509.345 9.2197031e-39
4223.3799 -3707.9399 513.21301 9.2197031e-39
4231.4399 -3704.99 515.198 9.2197031e-39
4401.5 -3013.8101 527.10699 9.2197031e-39
4401.6602 -3005.8501 526.77197 9.2197031e-39
4399.8599 -2976.3101 524.888 9.2197031e-39
4407.0498 -2971.25 526.54498 9.2197031e-39
4174.3198 -4491.5703 537.60999 9.2197031e-39
4179.98 -4483.2197 538.70502 9.2197031e-39
4302.4502 -3727.78 535.008 9.2197031e-39
4313.5898 -3727.01 537.90601 9.2197031e-39
4226.7202 -4484.2998 551.08002 9.2197031e-39
4237.46 -4482.9502 553.84698 9.2197031e-39
4362.7202 -3728.0701 550.91101 9.2197031e-39
4371.7402 -3725.02 553.14398 9.2197031e-39
4283.4102 -4481.3604 565.88898 9.2197031e-39
4295.3999 -4481.2803 569.047 9.2197031e-39
4340.5 -4477.0498 580.737 9.2197031e-39
4351.4102 -4475.0801 583.51801 9.2197031e-39
4380.25 -4433 589.11902 9.2197031e-39
4870.27 -1622.3369 584.41998 9.2197031e-39
4391.8901 -4463.6396 593.64697 9.2197031e-39
4926.8799 -1616.7581 599.08099 9.2197031e-39
5294.7002 -1561.656 693.44397 9.2197031e-39
5313.6099 -1544.068 697.59198 9.2197031e-39
5799.5601 -2064.55 850.52399 9.2197031e-39
5804.7202 -2050.7 851.22498 9.2197031e-39
5834.73 -2119.6099 862.41901 9.2197031e-39
5829.48 -2106.29 860.401 9.2197031e-39
5877.6602 -2175.6401 876.40997 9.2197031e-39
5865.8599 -2162.3198 872.664 9.2197031e-39
5910 -2219.5 887.026 9.2197031e-39
5706.6001 -3444.3501 891.74799 9.2197031e-39
5922.54 -2233.1699 890.98499 9.2197031e-39
5958.6899 -2292.26 903.33197 9.2197031e-39
5954.1201 -2278.27 901.45801 9.2197031e-39
5793.4102 -3463.3701 915.54602 9.2197031e-39
7325.6899 -1368.4241 1219.77 9.2197031e-39
7329.0601 -1347.152 1219.64 9.2197031e-39
7326.8999 -1281.213 1215.9301 9.2197031e-39
7330.8501 -1259.582 1215.9399 9.2197031e-39
7328.48 -1193.285 1212.16 9.2197031e-39
7335.8398 -1170.595 1213.02 9.2197031e-39
7356.7798 -1097.9919 1215.08 9.2197031e-39
7350.5298 -1078.296 1212.49 9.2197031e-39
7333.0801 -1539.6531 1229.87 9.2197031e-39
7328.5498 -1520.03 1227.74 9.2197031e-39
7329.6401 -1454.161 1224.89 9.2197031e-39
7335.2798 -1432.682 1225.36 9.2197031e-39
7334.6001 -1710.46 1238.41 9.2197031e-39
7330.73 -1690.822 1236.46 9.2197031e-39
7335.0498 -1625.057 1234.46 9.2197031e-39
7331.8101 -1605.2849 1232.67 9.2197031e-39
7347.3398 -1859.23 1248.86 9.2197031e-39
7354.8599 -1793.45 1247.71 9.2197031e-39
7332.04 -1775.75 1240.85 9.2197031e-39
7348.6299 -1879.11 1250.15 9.2197031e-39
7267.8999 -3563.71 1309.12 9.2197031e-39
7269.27 -3494.9399 1306.2 9.2197031e-39
7272.2998 -3475.47 1306.08 9.2197031e-39
7262.2202 -3764.1699 1317.17 9.2197031e-39
7264.46 -3744.1299 1316.8101 9.2197031e-39
7263.7402 -3673.3201 1313.24 9.2197031e-39
7266.54 -3653.5801 1313.04 9.2197031e-39
7273.8101 -3585.8201 1311.73 9.2197031e-39
7264.1499 -3950.74 1326.5699 9.2197031e-39
7262.5898 -3928.97 1325.12 9.2197031e-39
7265.4302 -3857.6499 1322.47 9.2197031e-39
7261.6401 -3835.3701 1320.41 9.2197031e-39
7507.8599 -3465.1001 1367.6899 9.2197031e-39
7602.7998 -3466.95 1392.8101 9.2197031e-39
7933.02 -2496.8999 1433.67 9.2197031e-39
7876.4399 -3357.78 1459.77 9.2197031e-39
7874.9702 -3456.1899 1464.0699 9.2197031e-39
7892.0298 -3437.3799 1467.67 9.2197031e-39
7889.3799 -3337.9399 1462.23 9.2197031e-39
