# .PCD v0.7 - Point Cloud Data file format
VERSION 0.7
FIELDS x y z rgb
SIZE 4 4 4 4
TYPE F F F F
COUNT 1 1 1 1
WIDTH 304
HEIGHT 1
VIEWPOINT 0 0 0 1 0 0 0
POINTS 304
DATA ascii
2992.23 -3807.29 30.1975 9.2197031e-39
3015.8052 -3806.4648 36.509899 9.2197031e-39
3044.48 -2407.05 39.4758 9.2197031e-39
3040.1299 -2397.77 38.2798 9.2197031e-39
3048.0601 -2127.01 39.492298 9.2197031e-39
3025.4299 -1441.526 31.118099 9.2197031e-39
3038.26 -1434.7765 34.534897 9.2197031e-39
3052.0449 -1438.2734 38.239449 9.2197031e-39
3036.6699 -3593.3799 41.383598 9.2197031e-39
3039.8401 -3576.1399 42.174702 9.2197031e-39
3054.0601 -3420.9399 45.459499 9.2197031e-39
3055.22 -3389.5901 45.666801 9.2197031e-39
3047.02 -2847.8101 41.643101 9.2197031e-39
3056.9199 -2847.22 44.292702 9.2197031e-39
3053.53 -2822.9199 43.303299 9.2197031e-39
3064.8 -2821.54 46.318501 9.2197031e-39
3062.22 -2813.1399 45.599602 9.2197031e-39
3069.46 -2792.3 47.4678 9.2197031e-39
3041.8 -2781.6201 40.021198 9.2197031e-39
3078.5801 -2774.8701 49.851799 9.2197031e-39
3068.4399 -2760.9399 47.089802 9.2197031e-39
3072.27 -2740.6099 48.046902 9.2197031e-39
3077.5901 -2700.3999 49.338001 9.2197031e-39
3057.4399 -2574.1899 43.512402 9.2197031e-39
3061.6299 -2542.1602 44.526798 9.2197031e-39
3052.72 -2509.1899 42.028599 9.2197031e-39
3056.0601 -2479.28 42.8232 9.2197031e-39
3047.3601 -2453.3398 40.403999 9.2197031e-39
3048.3899 -2416.7 40.556801 9.2197031e-39
3056.3135 -2412.7766 42.666637 9.2197031e-39
3063.155 -2413.8149 44.503899 9.2197031e-39
3048.1533 -2404.5935 40.453365 9.2197031e-39
3052.2852 -2403.5649 41.556252 9.2197031e-39
3060.6201 -2407.6802 43.8032 9.2197031e-39
3059.29 -2395.48 43.405701 9.2197031e-39
3062.8999 -2392.1001 44.361301 9.2197031e-39
3063.8 -2387.53 44.588799 9.2197031e-39
3054.5566 -2125.7366 41.229034 9.2197031e-39
3056.2634 -2117.4766 41.658035 9.2197031e-39
3065.51 -2116.7734 44.133533 9.2197031e-39
3065.75 -2107.5449 44.167152 9.2197031e-39
3057.5801 -2076.8901 41.875 9.2197031e-39
3065.1001 -2060.9302 43.836201 9.2197031e-39
3062.21 -2041.02 42.992699 9.2197031e-39
3075.6599 -1993.6801 46.439201 9.2197031e-39
3080.8799 -1929.5699 47.620701 9.2197031e-39
3067 -1440.24 42.2533 9.2197031e-39
3064.6899 -1439.801 41.632401 9.2197031e-39
3079.0901 -1432.748 45.466801 9.2197031e-39
3081.47 -1433.339 46.106701 9.2197031e-39
3094.1802 -1434.8015 49.516602 9.2197031e-39
3104.97 -2021.2 54.383202 9.2197031e-39
3111.1499 -1995.86 55.954399 9.2197031e-39
3093.5801 -1875.98 50.8414 9.2197031e-39
3093.26 -1831.16 50.607201 9.2197031e-39
3102.03 -1789.09 52.813999 9.2197031e-39
3099.54 -1748.99 52.012299 9.2197031e-39
3108.6599 -1694.886 54.272999 9.2197031e-39
3106.3301 -1644.7529 53.480301 9.2197031e-39
3111.8601 -1602.314 54.817799 9.2197031e-39
3112 -1522.311 54.585999 9.2197031e-39
3116.1001 -1475.7529 55.528 9.2197031e-39
3107.5901 -1451.1531 53.163799 9.2197031e-39
3106.1201 -1443.325 52.7435 9.2197031e-39
3128.24 -1971.49 60.450901 9.2197031e-39
3132.1201 -1954.9399 61.434502 9.2197031e-39
3145.1599 -1942.9399 64.888496 9.2197031e-39
3153.74 -1916.55 67.098297 9.2197031e-39
3179.8501 -1874.47 73.951599 9.2197031e-39
3186.0601 -1856.9 75.555099 9.2197031e-39
3205.3701 -1833.64 80.651802 9.2197031e-39
3217.1699 -1805.59 83.7183 9.2197031e-39
3245.49 -1764.66 91.169502 9.2197031e-39
3261.8401 -1730.08 95.432899 9.2197031e-39
3314.8999 -1640.495 109.347 9.2197031e-39
3424.1499 -1645.145 138.634 9.2197031e-39
3423.5 -1624.9985 138.392 9.2197031e-39
3446.8999 -1636.7964 144.70151 9.2197031e-39
3443.72 -1620.636 143.795 9.2197031e-39
3485.5249 -2904.8799 159.3235 9.2197031e-39
3496.04 -2895.905 162.10901 9.2197031e-39
3505.47 -2885.5801 164.60199 9.2197031e-39
3541.1799 -1345.489 168.979 9.2197031e-39
3542.78 -1331.391 169.36 9.2197031e-39
3539.1399 -1311.814 168.319 9.2197031e-39
3540.25 -1297.6531 168.57001 9.2197031e-39
3536.5801 -1277.067 167.517 9.2197031e-39
3536.29 -1264.614 167.39799 9.2197031e-39
3528.05 -1251.863 165.146 9.2197031e-39
3523.8601 -1246.553 164.005 9.2197031e-39
3519.26 -1225.782 162.703 9.2197031e-39
3560.8401 -2933.49 179.599 9.2197031e-39
3552.95 -1361.0911 172.185 9.2197031e-39
3547.8301 -1358.932 170.806 9.2197031e-39
3579.6699 -2953.79 184.71201 9.2197031e-39
3598.27 -1443.031 184.603 9.2197031e-39
3638.1499 -1397.061 195.13499 9.2197031e-39
3666.8999 -1378.718 202.77699 9.2197031e-39
3679.26 -1372.8921 206.06799 9.2197031e-39
3691.23 -1377.958 209.291 9.2197031e-39
3691.54 -3768.28 217.42799 9.2197031e-39
3694.1899 -3758.6101 218.108 9.2197031e-39
3698.96 -1378.7991 211.36501 9.2197031e-39
3725.835 -1370.689 218.53949 9.2197031e-39
3744.26 -1373.704 223.487 9.2197031e-39
3752.8701 -1374.5281 225.79601 9.2197031e-39
3774.915 -1373.9719 231.69949 9.2197031e-39
3793.8301 -1377.429 236.77901 9.2197031e-39
3809.8501 -1370.9141 241.048 9.2197031e-39
3828.4399 -1369.666 246.026 9.2197031e-39
3839.8301 -4019.6699 258.009 9.2197031e-39
3844.1101 -1364.479 250.20599 9.2197031e-39
3858.8201 -1367.9099 254.161 9.2197031e-39
3873.3701 -1364.696 258.048 9.2197031e-39
3885.3899 -1371.213 261.29001 9.2197031e-39
3899.4199 -1369.188 265.04099 9.2197031e-39
3887.1299 -4720.8799 273.04401 9.2197031e-39
3918.3799 -1368.979 270.121 9.2197031e-39
3934.02 -1366.136 274.302 9.2197031e-39
3953.8301 -1365.6321 279.60699 9.2197031e-39
3917.54 -4712.4902 281.164 9.2197031e-39
3933.02 -4716.8101 285.32599 9.2197031e-39
3968.99 -1364.068 283.664 9.2197031e-39
3992.54 -1360.635 289.961 9.2197031e-39
3967.3501 -4718.1396 294.526 9.2197031e-39
3981.96 -4719.23 298.44601 9.2197031e-39
4028.03 -1360.0381 299.46899 9.2197031e-39
4008.6599 -1359.043 294.276 9.2197031e-39
4015.3701 -4717.2002 307.39099 9.2197031e-39
4036.99 -3082.02 307.673 9.2197031e-39
4032.4399 -3028.23 306.27301 9.2197031e-39
4048.79 -1355.186 305.01401 9.2197031e-39
4027.0801 -4710.52 310.504 9.2197031e-39
4060.9299 -4708.8604 319.569 9.2197031e-39
4074.23 -1351.4919 311.819 9.2197031e-39
4090.0801 -1351.8779 316.06799 9.2197031e-39
4075.75 -4709.1299 323.54199 9.2197031e-39
4088.6001 -3131.77 321.66901 9.2197031e-39
4127.7998 -1338.71 326.12701 9.2197031e-39
4145.4702 -1338.658 330.86301 9.2197031e-39
4172.1699 -1335.564 338.00601 9.2197031e-39
4176.2002 -3648.76 346.88101 9.2197031e-39
4173.71 -3632.47 346.159 9.2197031e-39
4183.3599 -3608.99 348.66599 9.2197031e-39
4181.1201 -3593.51 348.01199 9.2197031e-39
4170.9502 -3341.8999 344.44101 9.2197031e-39
4169.7998 -3330.52 344.09399 9.2197031e-39
4192.3799 -1334.4299 343.41699 9.2197031e-39
4176.8599 -4709.5703 350.63101 9.2197031e-39
4190.2002 -3570.1399 350.367 9.2197031e-39
4200.1299 -3568.5601 353.021 9.2197031e-39
4202.1001 -3537.9399 353.44601 9.2197031e-39
4197.1099 -3520.3899 352.052 9.2197031e-39
4201.0298 -3492.95 353.00699 9.2197031e-39
4199.0098 -3479.0701 352.42099 9.2197031e-39
4213.3398 -3463.04 356.20499 9.2197031e-39
4218 -3456.0701 357.431 9.2197031e-39
4220.0801 -3428.26 357.89401 9.2197031e-39
4217.4502 -3414.4199 357.142 9.2197031e-39
4220.79 -3204.8101 357.332 9.2197031e-39
4223.8799 -3197.52 358.13501 9.2197031e-39
4212.1001 -3155.04 354.836 9.2197031e-39
4252.8501 -1355.629 359.689 9.2197031e-39
4247.2998 -1344.3921 358.164 9.2197031e-39
4246.7798 -1326.306 357.965 9.2197031e-39
4246.3901 -1310.984 357.80801 9.2197031e-39
4214.6299 -4713.25 360.76401 9.2197031e-39
4230.3301 -4713.0498 364.97101 9.2197031e-39
4240.5898 -3367.6799 363.186 9.2197031e-39
4242.5 -3358.4399 363.66501 9.2197031e-39
4247.29 -3335.1101 364.871 9.2197031e-39
4259.3501 -3334.78 368.10199 9.2197031e-39
4244.04 -3155.05 363.39301 9.2197031e-39
4236.5298 -3140.0901 361.332 9.2197031e-39
4235 -3115.9199 360.83899 9.2197031e-39
4235.1499 -3106.73 360.84799 9.2197031e-39
4246.0151 -3086.98 363.69299 9.2197031e-39
4268.3701 -3043.6799 369.53699 9.2197031e-39
4259.7202 -3029.1299 367.17099 9.2197031e-39
4272.2998 -1439.948 365.186 9.2197031e-39
4267.5 -1428.37 363.85999 9.2197031e-39
4261.5 -1382.637 362.09799 9.2197031e-39
4258.5698 -1369.551 361.26801 9.2197031e-39
4267.5098 -4714.2402 374.935 9.2197031e-39
4283.3701 -4713.5703 379.18201 9.2197031e-39
4272.7202 -3319.0701 371.63 9.2197031e-39
4274.29 -3309.6001 372.01801 9.2197031e-39
4282.7402 -3084.25 373.52301 9.2197031e-39
4285.1299 -3076.29 374.13599 9.2197031e-39
4272.23 -3015.46 370.474 9.2197031e-39
4277.54 -3009.47 371.87799 9.2197031e-39
4283.9399 -2992.21 373.534 9.2197031e-39
4289.9902 -2986.52 375.13699 9.2197031e-39
4301.0298 -1438.38 372.87799 9.2197031e-39
4326.4199 -1437.401 379.67801 9.2197031e-39
4300.6802 -1373.14 372.565 9.2197031e-39
4322.1802 -4716.7002 389.591 9.2197031e-39
4342.3501 -1656.723 384.68301 9.2197031e-39
4327.02 -1649.241 380.55301 9.2197031e-39
4354.52 -1437.063 387.20499 9.2197031e-39
4335.1099 -1365.307 381.763 9.2197031e-39
4337.73 -4714.6602 393.75101 9.2197031e-39
4386.0098 -1433.547 395.63 9.2197031e-39
4375.8701 -4715.3203 403.97101 9.2197031e-39
4392.0298 -4713.6602 408.29501 9.2197031e-39
4422.3398 -1589.718 405.88901 9.2197031e-39
4424.0698 -1573.213 406.298 9.2197031e-39
4421.0098 -1429.979 404.995 9.2197031e-39
4431.3901 -4715.3101 418.84698 9.2197031e-39
4473.1001 -1415.9829 418.90399 9.2197031e-39
4447.6899 -4713.1602 423.20801 9.2197031e-39
4463.73 -3062.3301 421.94199 9.2197031e-39
4478.02 -3059.3601 425.76099 9.2197031e-39
4475.3301 -3035.1899 424.95801 9.2197031e-39
4474.0498 -3023.76 424.577 9.2197031e-39
4471.8398 -2995.105 423.88699 9.2197031e-39
4488.3701 -2976.1399 428.25299 9.2197031e-39
4510.0898 -1659.3091 429.63599 9.2197031e-39
4504.79 -1517.4771 427.73801 9.2197031e-39
4485.79 -4711.4902 433.41101 9.2197031e-39
4507.3599 -4717.2998 439.20801 9.2197031e-39
4513.8398 -2977.6399 435.082 9.2197031e-39
4543.1699 -1393.739 437.603 9.2197031e-39
4547.8198 -4718.21 450.05099 9.2197031e-39
4563.8901 -4714.1602 454.345 9.2197031e-39
4605.1401 -4715.1201 465.39899 9.2197031e-39
4620.7798 -4709.73 469.57101 9.2197031e-39
4620.3301 -4533.9297 468.858 9.2197031e-39
4666.1201 -4715.6201 481.73999 9.2197031e-39
4682.4302 -4710.5098 486.09299 9.2197031e-39
4676.2402 -4640.8604 484.20001 9.2197031e-39
4729.21 -1658.085 488.33899 9.2197031e-39
4764.1401 -1664.2629 497.71799 9.2197031e-39
4798.8701 -1669.1799 507.04099 9.2197031e-39
4820.04 -1681.167 512.75299 9.2197031e-39
4853.8701 -1687.24 521.836 9.2197031e-39
4881.2998 -1308.8459 527.91199 9.2197031e-39
4881.9302 -1286.946 528.005 9.2197031e-39
4876.1802 -1269.3201 526.40503 9.2197031e-39
4879.79 -1245.5339 527.29303 9.2197031e-39
4866.8799 -1231.584 523.78601 9.2197031e-39
5143.6499 -1701.9299 599.52802 9.2197031e-39
5122.3501 -1685.363 593.76501 9.2197031e-39
5132.0801 -1664.073 596.29999 9.2197031e-39
5148.5801 -1719.14 600.90698 9.2197031e-39
5586.7002 -1780.4301 718.49597 9.2197031e-39
5581.5698 -1706.36 716.87299 9.2197031e-39
5592.6299 -1682.49 719.75598 9.2197031e-39
5579.71 -1636.682 716.14099 9.2197031e-39
5597.1299 -1751.41 721.19299 9.2197031e-39
5597.2002 -1730.13 721.14203 9.2197031e-39
5610.5 -1651.078 724.43903 9.2197031e-39
5770.1401 -3481.1399 773.37799 9.2197031e-39
5799.3101 -3554.03 781.43701 9.2197031e-39
5795.4102 -3529.8999 780.31201 9.2197031e-39
5815.54 -3479.05 785.534 9.2197031e-39
5880.2998 -2093.6201 798.21503 9.2197031e-39
5866.0098 -2064.6099 794.289 9.2197031e-39
5906.7598 -2144.47 805.47699 9.2197031e-39
5887.1602 -2115.1299 800.12799 9.2197031e-39
5896.3599 -2040.39 802.34003 9.2197031e-39
5958.8101 -2217.8198 819.66901 9.2197031e-39
5947.8301 -2195.8799 816.65302 9.2197031e-39
5927.75 -2165.7 811.17297 9.2197031e-39
5992.8398 -2271.05 828.96698 9.2197031e-39
5982.23 -2248.76 826.04901 9.2197031e-39
6016.7002 -2302.8901 835.46698 9.2197031e-39
6065.6802 -2358.75 848.77899 9.2197031e-39
6037.5498 -2325.75 841.13098 9.2197031e-39
6117.02 -2383.48 862.61798 9.2197031e-39
7330.7598 -4082.1499 1193.54 9.2197031e-39
7329.52 -4046.4399 1193.08 9.2197031e-39
7327.5698 -3990.5801 1192.37 9.2197031e-39
7334.6602 -3958.5901 1194.17 9.2197031e-39
7332.5801 -3903.48 1193.42 9.2197031e-39
7330.8999 -3868.3899 1192.85 9.2197031e-39
7337.7998 -3817.3899 1194.53 9.2197031e-39
7336.3799 -3782.72 1194.03 9.2197031e-39
7339.6001 -3730.99 1194.72 9.2197031e-39
7344.8999 -3698.8701 1196.03 9.2197031e-39
7346.27 -3647.0701 1196.23 9.2197031e-39
7345.4399 -3613.1599 1195.89 9.2197031e-39
7347.73 -3562.25 1196.33 9.2197031e-39
7352.79 -3530.3201 1197.58 9.2197031e-39
7358.8301 -3480.95 1199.03 9.2197031e-39
7418.8501 -1877.8 1209.71 9.2197031e-39
7417.0298 -1844.2 1209.11 9.2197031e-39
7395.46 -1800.1 1203.1801 9.2197031e-39
7399.8101 -1765.8 1204.23 9.2197031e-39
7403.3999 -1719.1 1205.04 9.2197031e-39
7393.7402 -1686.266 1202.34 9.2197031e-39
7404.2002 -1638.496 1204.98 9.2197031e-39
7402.5898 -1604.369 1204.4301 9.2197031e-39
7401.71 -1558.004 1204.04 9.2197031e-39
7395.6899 -1524.385 1202.3101 9.2197031e-39
7403.54 -1476.395 1204.26 9.2197031e-39
7577.1499 -3507.3301 1257.61 9.2197031e-39
7772.02 -3505.3501 1309.8199 9.2197031e-39
7926.7598 -3508.3 1351.29 9.2197031e-39
7955.0098 -3458.77 1358.6899 9.2197031e-39
7964.0698 -3423.3 1361 9.2197031e-39
7997.8701 -2548.3101 1367.1 9.2197031e-39
8102.9102 -3398.1299 1398.11 9.2197031e-39
8538.9004 -3453.74 1515.11 9.2197031e-39
