# .PCD v0.7 - Point Cloud Data file format
VERSION 0.7
FIELDS x y z rgb
SIZE 4 4 4 4
TYPE F F F F
COUNT 1 1 1 1
WIDTH 319
HEIGHT 1
VIEWPOINT 0 0 0 1 0 0 0
POINTS 319
DATA ascii
254.592 -1215.4885 134.6945 9.2197031e-39
264.74451 -1205.3505 137.41501 9.2197031e-39
272.42899 -1205.631 139.474 9.2197031e-39
272.71799 -774.68799 139.55099 9.2197031e-39
267.65601 -467.991 138.19501 9.2197031e-39
272.845 -441.4635 139.58499 9.2197031e-39
252.00101 1308 134 9.2197031e-39
268.08401 1307.9301 138.31 9.2197031e-39
277.53299 -1205.423 140.842 9.2197031e-39
282.48401 -1202.1741 142.168 9.2197031e-39
287.20401 -1195.886 143.433 9.2197031e-39
293.8425 -1182.887 145.2115 9.2197031e-39
298.724 -1152.8879 146.52 9.2197031e-39
299.586 -1111.634 146.75101 9.2197031e-39
289.96399 -973.94 144.172 9.2197031e-39
290.599 -950.73096 144.343 9.2197031e-39
283.58099 -806.427 142.46201 9.2197031e-39
283.56601 -795.28503 142.45799 9.2197031e-39
277.09949 -784.67346 140.72549 9.2197031e-39
282.69501 -780.21997 142.22501 9.2197031e-39
276.332 -779.23901 140.52 9.2197031e-39
283.33301 -775.01898 142.396 9.2197031e-39
306.026 -772.14099 148.476 9.2197031e-39
284.92502 -762.78467 142.82234 9.2197031e-39
294.04269 -760.51874 145.26534 9.2197031e-39
304.02277 -765.7005 147.93924 9.2197031e-39
311.53601 -764.854 149.953 9.2197031e-39
285.57535 -754.80267 142.99634 9.2197031e-39
293.23434 -755.56427 145.04866 9.2197031e-39
303.58899 -750.823 147.823 9.2197031e-39
303.207 -745.65198 147.72099 9.2197031e-39
307.81601 -460.49402 148.95599 9.2197031e-39
310.83301 -467.86401 149.7645 9.2197031e-39
289.245 -450.905 143.98 9.2197031e-39
290.75 -450.28198 144.383 9.2197031e-39
288.4035 -446.04752 143.754 9.2197031e-39
295.67874 -444.96802 145.70349 9.2197031e-39
304.9805 -442.836 148.1965 9.2197031e-39
277.29233 -434.73203 140.77733 9.2197031e-39
285.422 -433.84851 142.95549 9.2197031e-39
305.07776 -437.02899 148.22224 9.2197031e-39
311.13599 -431.79498 149.845 9.2197031e-39
285.67902 -424.444 143.024 9.2197031e-39
286.28101 -417.41699 143.186 9.2197031e-39
284.267 1313.71 142.646 9.2197031e-39
300.396 1313.34 146.968 9.2197031e-39
315.62399 -461.90399 151.048 9.2197031e-39
314.035 -454.00299 150.62201 9.2197031e-39
313.8855 -445.24451 150.582 9.2197031e-39
314.66901 -433.17401 150.79199 9.2197031e-39
332.939 1319.17 155.687 9.2197031e-39
316.82599 1321.83 151.37 9.2197031e-39
349.517 1326.36 160.13 9.2197031e-39
365.633 1323.41 164.448 9.2197031e-39
382.04401 1325.3 168.845 9.2197031e-39
398.267 1324.05 173.192 9.2197031e-39
415.32199 1332.62 177.76199 9.2197031e-39
432.439 1340.03 182.349 9.2197031e-39
449.492 1345.28 186.918 9.2197031e-39
465.66299 1341.4399 191.25101 9.2197031e-39
1314 1061.1 418.561 9.2197031e-39
1337.6801 1066.37 424.90701 9.2197031e-39
1361.53 1071.33 431.298 9.2197031e-39
1430.66 1079.52 449.82199 9.2197031e-39
1430.58 1694.78 449.79999 9.2197031e-39
1414.08 1761.1699 445.379 9.2197031e-39
1424.91 1889.6599 448.28101 9.2197031e-39
1461.34 588.09998 458.04001 9.2197031e-39
1450.58 598.29004 455.15799 9.2197031e-39
1441.12 609.77002 452.62399 9.2197031e-39
1432.25 621.88 450.246 9.2197031e-39
1439.61 1061.5699 452.21799 9.2197031e-39
1461.59 1805.5701 458.10901 9.2197031e-39
1437.67 1861.96 451.698 9.2197031e-39
1482.54 507.43005 463.72198 9.2197031e-39
1500.64 504.06006 468.573 9.2197031e-39
1494.86 538.38 467.02399 9.2197031e-39
1493.12 556.93005 466.556 9.2197031e-39
1483.3199 568.09998 463.92999 9.2197031e-39
1470.6 576.44995 460.522 9.2197031e-39
1470.3101 1168.26 460.44501 9.2197031e-39
1475.6899 1733.26 461.88699 9.2197031e-39
1514.34 496.59998 472.24301 9.2197031e-39
1532.48 492.78003 477.104 9.2197031e-39
1507.38 1063.49 470.37701 9.2197031e-39
1511.54 1099.36 471.492 9.2197031e-39
1540.99 1620.9199 479.38501 9.2197031e-39
1530.0699 1646.27 476.457 9.2197031e-39
1538.61 1707.0901 478.74701 9.2197031e-39
1516.74 1714.28 472.88599 9.2197031e-39
1510.76 1750.98 471.285 9.2197031e-39
1549.9 488.08997 481.771 9.2197031e-39
1569.61 485.04004 487.05099 9.2197031e-39
1574.8101 1634.77 488.44501 9.2197031e-39
1591.25 1052.36 492.85101 9.2197031e-39
1601.9 1593.6599 495.70401 9.2197031e-39
1653.99 -3938.1001 509.66199 9.2197031e-39
1654.37 -3785.77 509.76401 9.2197031e-39
1654.23 -3713.1699 509.72601 9.2197031e-39
1649.76 -3566.9199 508.52802 9.2197031e-39
1646.67 869.30005 507.702 9.2197031e-39
1650.59 1065.64 508.75 9.2197031e-39
1636.49 1078.22 504.974 9.2197031e-39
1626.35 1677.01 502.25601 9.2197031e-39
1680.9399 -4453.8203 516.88202 9.2197031e-39
1660.62 -4302.1299 511.43799 9.2197031e-39
1667.17 -4226.2197 513.19299 9.2197031e-39
1665.52 -4132.9102 512.75098 9.2197031e-39
1660.15 -4034.3999 511.311 9.2197031e-39
1655.75 -3864.1001 510.134 9.2197031e-39
1670.83 -3546.1201 514.17499 9.2197031e-39
1669.6899 1058.9399 513.87 9.2197031e-39
1666.45 1491.29 512.99902 9.2197031e-39
1717.4301 -3780.71 526.65997 9.2197031e-39
1698.6801 -3539.4299 521.63702 9.2197031e-39
1715.0601 1052.98 526.026 9.2197031e-39
1730.99 -3541.3301 530.29303 9.2197031e-39
1764.79 -3545.51 539.35101 9.2197031e-39
1759.9 1074.0699 538.04102 9.2197031e-39
1787.72 -3528.22 545.495 9.2197031e-39
1829.67 -3546.5901 556.73499 9.2197031e-39
1852.55 -3528.75 562.86499 9.2197031e-39
1891.66 -3540.1599 573.34497 9.2197031e-39
1920.3 -3532.1201 581.02002 9.2197031e-39
1958.39 -3540.0801 591.22498 9.2197031e-39
1987.65 -3532.23 599.065 9.2197031e-39
2025.09 -3537.6399 609.099 9.2197031e-39
2055.5 -3530.78 617.245 9.2197031e-39
2090.1299 -3530.3101 626.52502 9.2197031e-39
2124.3501 -3528.6101 635.69598 9.2197031e-39
2160.3101 -3528.99 645.33002 9.2197031e-39
2166.3401 -444.02301 646.94598 9.2197031e-39
2147.6299 -428.30298 641.93298 9.2197031e-39
2149 -410.896 642.29901 9.2197031e-39
2146.3701 -393.87 641.59497 9.2197031e-39
2152.24 -375.858 643.16699 9.2197031e-39
2156.99 -357.84601 644.44 9.2197031e-39
2195.3201 -3527.3 654.71198 9.2197031e-39
2199.3799 -459.022 655.79901 9.2197031e-39
2232.1101 -3527.6499 664.56897 9.2197031e-39
2250.6299 -473.44598 669.53101 9.2197031e-39
2276.3501 -3538.1399 676.422 9.2197031e-39
2287.3101 -489.57098 679.35999 9.2197031e-39
2316.9299 -3542.3899 687.297 9.2197031e-39
2352.5701 -3538.8999 696.84698 9.2197031e-39
2352.5701 -524.05872 696.84698 9.2197031e-39
2329.6599 -506.08749 690.70697 9.2197031e-39
2392.96 -3541.3701 707.66901 9.2197031e-39
2397.96 -561.22083 709.008 9.2197031e-39
2382.1001 -542.25372 704.75897 9.2197031e-39
2428.23 -600 717.11902 9.2197031e-39
2412.6899 -580.4787 712.95599 9.2197031e-39
2455.8899 -3573.49 724.53101 9.2197031e-39
2454.23 -619.89648 724.08502 9.2197031e-39
2517.74 -3602.3201 741.104 9.2197031e-39
2535.6399 1214.11 745.89801 9.2197031e-39
2533.2 1245.14 745.245 9.2197031e-39
2637.3701 -3704.6101 773.15802 9.2197031e-39
2661.3701 1245.73 779.59003 9.2197031e-39
2631.0701 1256 771.46899 9.2197031e-39
2677.6201 1224.48 783.94299 9.2197031e-39
2739.9299 337.47699 800.63898 9.2197031e-39
2754.25 1247.8 804.47498 9.2197031e-39
2799.6101 -3857.02 816.63098 9.2197031e-39
2816.4099 1258.96 821.13098 9.2197031e-39
2850.9299 -3863.97 830.38098 9.2197031e-39
2886.4199 -3850.3301 839.89001 9.2197031e-39
2873.3799 1265.1801 836.39502 9.2197031e-39
2925.6299 -3840.8501 850.39801 9.2197031e-39
2936.22 384.06201 853.23401 9.2197031e-39
2941.05 1277.77 854.52802 9.2197031e-39
2964.8899 -3830.9099 860.91602 9.2197031e-39
3006.1001 -3822.76 871.95898 9.2197031e-39
3015.8 -3562.96 874.55798 9.2197031e-39
3002.6899 1284.86 871.04401 9.2197031e-39
3049.3201 -3816.3301 883.539 9.2197031e-39
3053.54 -3551.4299 884.66901 9.2197031e-39
3097.21 -3814.53 896.37 9.2197031e-39
3109.0601 -3506.6699 899.54797 9.2197031e-39
3106.3601 -3453.6599 898.823 9.2197031e-39
3100.1699 -3398.1599 897.16602 9.2197031e-39
3097.51 -3347.0901 896.453 9.2197031e-39
3096.3501 -3298.3101 896.14099 9.2197031e-39
3108.9399 -3263.1399 899.513 9.2197031e-39
3105.95 -3214.04 898.71503 9.2197031e-39
3076.6899 -1089.366 890.87402 9.2197031e-39
3088.3401 -1065.08 893.995 9.2197031e-39
3074.3701 1297.52 890.25098 9.2197031e-39
3111.6799 -3774.8101 900.24799 9.2197031e-39
3113.0601 -3721.29 900.61902 9.2197031e-39
3119.29 -3568.4299 902.28699 9.2197031e-39
3127.8799 -3188.1499 904.58899 9.2197031e-39
3243.02 -654.05011 935.44 9.2197031e-39
3321.6299 -683.21649 956.50403 9.2197031e-39
3355.9299 -33.385986 965.69598 9.2197031e-39
3398.5801 -3382.23 977.12299 9.2197031e-39
3374.8799 -58.973999 970.77301 9.2197031e-39
3511.55 25.432007 1007.39 9.2197031e-39
3593.1399 -933.06396 1029.26 9.2197031e-39
3590.05 -902.34302 1028.4301 9.2197031e-39
3581.8701 -871.31104 1026.24 9.2197031e-39
3574.3999 -840.52002 1024.23 9.2197031e-39
3600.77 -964.38599 1031.3 9.2197031e-39
3666.01 1279.29 1048.78 9.2197031e-39
3697.1699 -3592.8201 1057.13 9.2197031e-39
3705.3201 1105.25 1059.3101 9.2197031e-39
3697.76 1139.89 1057.29 9.2197031e-39
3692.47 1175.87 1055.87 9.2197031e-39
3682.54 1209.61 1053.21 9.2197031e-39
3674.8601 1244.6899 1051.15 9.2197031e-39
3715.6201 -1008.55 1062.0699 9.2197031e-39
3708.3899 -818.85901 1060.14 9.2197031e-39
3738.5601 969.47998 1068.22 9.2197031e-39
3731.3701 1003.76 1066.29 9.2197031e-39
3727.3899 1039.7 1065.23 9.2197031e-39
3720.4399 1074.41 1063.36 9.2197031e-39
3774.73 -791.13098 1077.91 9.2197031e-39
3779.1001 -759.42902 1079.08 9.2197031e-39
3746.3201 935.56995 1070.3 9.2197031e-39
3808.8301 -1761.02 1087.05 9.2197031e-39
3813.8601 -1727.38 1088.4 9.2197031e-39
3817.6399 780.17004 1089.41 9.2197031e-39
3833.8201 -1804.86 1093.74 9.2197031e-39
3855.6399 -1705.1 1099.59 9.2197031e-39
3820.6599 1405.97 1090.22 9.2197031e-39
3894.3601 305.30103 1109.97 9.2197031e-39
3886.5901 338.17297 1107.89 9.2197031e-39
3879.48 371.224 1105.98 9.2197031e-39
3865.02 687.94995 1102.1 9.2197031e-39
3877.1101 840.64001 1105.35 9.2197031e-39
3898.6399 -1863.1899 1111.11 9.2197031e-39
3902.78 203.37 1112.22 9.2197031e-39
3896.8101 236.539 1110.62 9.2197031e-39
3895.27 270.78497 1110.21 9.2197031e-39
3905.6799 413.53998 1113 9.2197031e-39
3900.72 447.56995 1111.67 9.2197031e-39
3910.3201 486.01001 1114.24 9.2197031e-39
3899.55 663.51001 1111.36 9.2197031e-39
3925.9399 898.26001 1118.4301 9.2197031e-39
3932.6001 -1692.63 1120.21 9.2197031e-39
3939.96 -97.343994 1122.1801 9.2197031e-39
3949.9299 -61.95697 1124.86 9.2197031e-39
3932.8301 140.71997 1120.28 9.2197031e-39
3943.49 177.53497 1123.13 9.2197031e-39
3946.8101 642.87 1124.02 9.2197031e-39
3976.1101 -1669.22 1131.87 9.2197031e-39
3985.7 618.76001 1134.4399 9.2197031e-39
3984.9099 1000.76 1134.23 9.2197031e-39
4053.0901 -1654.4301 1152.5 9.2197031e-39
4078.1799 1595.7 1159.22 9.2197031e-39
4060.3701 1630.6799 1154.45 9.2197031e-39
4131.9702 -1638.83 1173.64 9.2197031e-39
4208.0601 -1621.15 1194.02 9.2197031e-39
4240.96 1068.5 1202.84 9.2197031e-39
4276.1201 634.05005 1212.26 9.2197031e-39
4272.0298 672.40002 1211.16 9.2197031e-39
4271.1099 1949.79 1210.92 9.2197031e-39
4404.6899 -3898.8799 1246.71 9.2197031e-39
4457.0298 -3880.49 1260.73 9.2197031e-39
4521.0098 -3870.3301 1277.88 9.2197031e-39
4505.3101 2205.24 1273.67 9.2197031e-39
4553.79 -1265.5859 1286.66 9.2197031e-39
4576.5498 -3852.8 1292.76 9.2197031e-39
4575.5 -1229.062 1292.48 9.2197031e-39
4576.7998 -1189.4561 1292.83 9.2197031e-39
4567.23 -1148.5339 1290.26 9.2197031e-39
4583.6699 2202.21 1294.67 9.2197031e-39
4636.8301 -3838 1308.91 9.2197031e-39
4676.29 -4375.7598 1319.49 9.2197031e-39
4694.8101 -3820.6299 1324.45 9.2197031e-39
4749.2402 -4370.2598 1339.03 9.2197031e-39
4788.3901 2221.8899 1349.52 9.2197031e-39
4829.23 -4369.3301 1360.46 9.2197031e-39
4828.5801 2135.5 1360.29 9.2197031e-39
4901.9302 -4361.0703 1379.9399 9.2197031e-39
4881.0898 2222.9299 1374.36 9.2197031e-39
5525.7998 -4352.4399 1547.11 9.2197031e-39
5606.6899 -3609.9199 1568.78 9.2197031e-39
5617.29 -4346.5898 1571.62 9.2197031e-39
5644.6299 -4295.2197 1578.95 9.2197031e-39
5636.6899 -4220.21 1576.8199 9.2197031e-39
5631.1602 -4147.79 1575.34 9.2197031e-39
5631.3701 -4079.98 1575.4 9.2197031e-39
5633.3198 -4014 1575.92 9.2197031e-39
5633.7402 -3947.75 1576.03 9.2197031e-39
5625.1299 -3876.6699 1573.73 9.2197031e-39
5615.7402 -3806 1571.21 9.2197031e-39
5612.2998 -3739.6899 1570.29 9.2197031e-39
5613.21 -3676.6001 1570.53 9.2197031e-39
5685.25 -3282.9399 1589.83 9.2197031e-39
5680.4302 -3161.1399 1588.54 9.2197031e-39
5696.6699 -3597.1101 1592.89 9.2197031e-39
5697.7402 -3534.8701 1593.1801 9.2197031e-39
5689.5601 -3468.3101 1590.99 9.2197031e-39
5688.4702 -3406.1399 1590.7 9.2197031e-39
5695.4199 -3348.5901 1592.5601 9.2197031e-39
5691.02 -3225.73 1591.38 9.2197031e-39
5704.46 -3113.22 1594.98 9.2197031e-39
7244.8999 -852.81201 2007.74 9.2197031e-39
7264.9702 -3756.8999 2013.12 9.2197031e-39
7261.0898 -3680.1299 2012.08 9.2197031e-39
7262.6899 -3606.3601 2012.51 9.2197031e-39
7256.4199 -3529.8 2010.83 9.2197031e-39
7265.5698 -3460.1699 2013.28 9.2197031e-39
7265.0601 -3387.03 2013.14 9.2197031e-39
7263.8599 -3314.1101 2012.8199 9.2197031e-39
7261.96 -3241.4199 2012.3101 9.2197031e-39
7261.2002 -3169.6399 2012.11 9.2197031e-39
7265.2402 -3100.04 2013.1899 9.2197031e-39
7700.6001 552.46997 2129.8501 9.2197031e-39
7699.1899 621.13 2129.47 9.2197031e-39
7810.04 -2478.53 2159.1699 9.2197031e-39
7807.71 -2405.9102 2158.54 9.2197031e-39
7808.5 -2334.3301 2158.76 9.2197031e-39
7804.8799 -2262.05 2157.79 9.2197031e-39
7803.4502 -2190.5601 2157.4099 9.2197031e-39
7799.5098 -2118.8398 2156.3501 9.2197031e-39
7799.6699 -2048.23 2156.3899 9.2197031e-39
7796.3701 -1977.2 2155.51 9.2197031e-39
