# .PCD v0.7 - Point Cloud Data file format
VERSION 0.7
FIELDS x y z rgb
SIZE 4 4 4 4
TYPE F F F F
COUNT 1 1 1 1
WIDTH 314
HEIGHT 1
VIEWPOINT 0 0 0 1 0 0 0
POINTS 314
DATA ascii
3346.1201 -3780.52 32.352402 9.2197031e-39
3359.1799 -3782.98 35.823799 9.2197031e-39
3372.28 -3785.3201 39.308601 9.2197031e-39
3308.26 -2390.3101 35.9245 9.2197031e-39
3305.7168 -2382.5566 35.320133 9.2197031e-39
3302.1001 -2376.9399 34.406399 9.2197031e-39
3303.6699 -2362.6802 34.969002 9.2197031e-39
3137.8301 1874.6499 32.352402 9.2197031e-39
3412.8701 -3804.5901 49.986599 9.2197031e-39
3385.8601 -3794.53 42.853802 9.2197031e-39
3399.03 -3795.6299 46.370998 9.2197031e-39
3371.6799 -2772.9299 49.132801 9.2197031e-39
3353.03 -2632.1499 45.527599 9.2197031e-39
3355.4099 -2626.6499 46.220299 9.2197031e-39
3351.4399 -2586.72 45.550598 9.2197031e-39
3336.77 -2566.96 41.816002 9.2197031e-39
3342.8701 -2526.29 43.851002 9.2197031e-39
3334.26 -2470.9399 42.0919 9.2197031e-39
3330.4299 -2443.1499 41.341099 9.2197031e-39
3346.9199 -2413.405 46.049652 9.2197031e-39
3324.6748 -2405.53 40.170799 9.2197031e-39
3336.635 -2403.76 43.390598 9.2197031e-39
3344.1731 -2405.5566 45.391666 9.2197031e-39
3354.8501 -2409.1802 48.214401 9.2197031e-39
3326.3875 -2395.3225 40.729347 9.2197031e-39
3331.385 -2396.5151 42.054951 9.2197031e-39
3342.72 -2389.4199 45.1604 9.2197031e-39
3338.5601 -2374.98 44.188599 9.2197031e-39
3334.52 -2361.5601 43.240501 9.2197031e-39
3317.0901 -2122.8198 40.926701 9.2197031e-39
3320.3601 -2113.3501 41.897301 9.2197031e-39
3318.1165 -2106.6833 41.361965 9.2197031e-39
3325.6426 -2105.7251 43.385948 9.2197031e-39
3331.78 -2093.7351 45.148598 9.2197031e-39
3321.3799 -2075.76 42.5411 9.2197031e-39
3325.6399 -2043.02 44.004299 9.2197031e-39
3326.71 -2025.96 44.459999 9.2197031e-39
3330.9399 -1987.16 45.9748 9.2197031e-39
3334.3701 -1949.26 47.266602 9.2197031e-39
3335.8999 -1920.17 47.964298 9.2197031e-39
3333.9299 -1913.8199 47.498299 9.2197031e-39
3335.05 -1881.7 48.115101 9.2197031e-39
3338.6101 -1823.72 49.6408 9.2197031e-39
3333.0601 -1652.3931 49.844002 9.2197031e-39
3297.1299 -846.66498 48.168999 9.2197031e-39
3172.6101 1874.77 41.666801 9.2197031e-39
3349.1799 -2043.83 50.3004 9.2197031e-39
3360.3899 -2012.9 53.605701 9.2197031e-39
3365.9099 -2002.14 55.190899 9.2197031e-39
3342.5801 -1752.74 51.403801 9.2197031e-39
3341.3501 -1722.4399 51.3713 9.2197031e-39
3339.8701 -1689.129 51.304401 9.2197031e-39
3336.9399 -1666.7671 50.741402 9.2197031e-39
3331.77 -1594.151 50.072701 9.2197031e-39
3344.98 -1259.408 56.910999 9.2197031e-39
3320.1201 -875.065 54.046501 9.2197031e-39
3308.97 -844.81702 51.3568 9.2197031e-39
3332.5801 -846.44202 57.664501 9.2197031e-39
3207.4399 1871.5801 50.962502 9.2197031e-39
3385.8899 -1946.88 61.0853 9.2197031e-39
3404.9399 -1897.65 66.670799 9.2197031e-39
3362.7 -710.68219 67.068497 9.2197031e-39
3350.52 -690.06604 64.010498 9.2197031e-39
3242.3999 1852.0801 60.130199 9.2197031e-39
3276.8999 1872.26 69.566902 9.2197031e-39
3420.3501 -1861.9399 71.149101 9.2197031e-39
3437.6799 -1822.73 76.176201 9.2197031e-39
3457.3501 -1779.13 81.875198 9.2197031e-39
3474 -1746.12 86.658401 9.2197031e-39
3487 -1724.55 90.352898 9.2197031e-39
3498.5901 -1707.8201 93.620201 9.2197031e-39
3517.0701 -1674.621 98.897301 9.2197031e-39
3545.8701 -1617.7839 107.169 9.2197031e-39
3569.1499 -1577.0239 113.804 9.2197031e-39
3632.53 -1444.3511 132.08299 9.2197031e-39
3657.1899 -1406.5391 139.06 9.2197031e-39
3732.1299 -2810.6599 145.27901 9.2197031e-39
3674.8201 -1386.339 143.979 9.2197031e-39
3685.79 -1381.745 146.96201 9.2197031e-39
3696.45 -1378.1841 149.851 9.2197031e-39
3775.0801 -2876.4199 156.129 9.2197031e-39
3789.28 -2872.21 159.97501 9.2197031e-39
3772.26 -2800.1001 156.12801 9.2197031e-39
3780.1699 -2799.4199 158.25101 9.2197031e-39
3702.05 -1385.491 151.28101 9.2197031e-39
3713.24 -1381.2471 154.317 9.2197031e-39
3724.52 -1377.141 157.379 9.2197031e-39
3829.54 -3120.0601 168.311 9.2197031e-39
3824.71 -3095.8899 167.254 9.2197031e-39
3815.75 -3066.04 165.151 9.2197031e-39
3824.25 -3063.76 167.448 9.2197031e-39
3810.5701 -2823.48 166.155 9.2197031e-39
3735.01 -1374.939 160.209 9.2197031e-39
3741.8999 -1379.894 162.005 9.2197031e-39
3756.6599 -1370.033 166.054 9.2197031e-39
3764.05 -1374.3049 167.991 9.2197031e-39
3771.3999 -1378.6431 169.91701 9.2197031e-39
3859.6101 -3085.9399 176.698 9.2197031e-39
3871.72 -3088.1101 179.918 9.2197031e-39
3838.79 -3070.45 171.27699 9.2197031e-39
3842.51 -2926.6299 173.69099 9.2197031e-39
3854.3201 -2905.48 177.061 9.2197031e-39
3789.46 -1381.515 174.72501 9.2197031e-39
3783.1101 -1375.29 173.084 9.2197031e-39
3801.27 -1378.406 177.918 9.2197031e-39
3882.1899 -3087.6899 182.72701 9.2197031e-39
3900.79 -2911.55 189.44501 9.2197031e-39
3813.6899 -1374.5959 181.27901 9.2197031e-39
3825.6799 -1371.79 184.52 9.2197031e-39
3838.8201 -1367.4561 188.07899 9.2197031e-39
3955.5 -3820.71 195.12801 9.2197031e-39
3943.52 -3141.54 198.619 9.2197031e-39
3916.9299 -3120.8799 191.703 9.2197031e-39
3846.23 -1372.47 190.01401 9.2197031e-39
3857.8999 -1370.915 193.15401 9.2197031e-39
3870.1799 -1368.681 196.465 9.2197031e-39
3881.99 -1367.423 199.64 9.2197031e-39
4000.78 -3888.6399 206.58099 9.2197031e-39
3978.0801 -3381.73 205.502 9.2197031e-39
3965.96 -3063.74 205.394 9.2197031e-39
3890.52 -1371.198 201.886 9.2197031e-39
3902.98 -1369.394 205.242 9.2197031e-39
3915.52 -1367.75 208.616 9.2197031e-39
4001.46 -3186.3401 213.69099 9.2197031e-39
3927.5601 -1367.0649 211.84599 9.2197031e-39
3941.4199 -1364.1489 215.58501 9.2197031e-39
3953 -1364.572 218.68201 9.2197031e-39
4034.28 -3247.4299 221.877 9.2197031e-39
4039.6499 -3048.3601 225.27901 9.2197031e-39
3964.6201 -1365.136 221.789 9.2197031e-39
3978.1101 -1363.512 225.416 9.2197031e-39
3989.8301 -1364.38 228.547 9.2197031e-39
4084.8101 -3754.1201 230.408 9.2197031e-39
4090.8601 -3734.6799 232.222 9.2197031e-39
4086.6101 -3696.96 231.455 9.2197031e-39
4102.6602 -3696.6699 235.757 9.2197031e-39
4095.1101 -3654.8501 234.14799 9.2197031e-39
4096.9302 -3630.4199 234.87399 9.2197031e-39
4097.3701 -3604.3501 235.25 9.2197031e-39
4100.0098 -3208.46 239.862 9.2197031e-39
4002.22 -1364.627 231.86 9.2197031e-39
4020.8999 -1357.423 236.933 9.2197031e-39
4053.05 -1350.5759 245.60899 9.2197031e-39
4041.02 -1348.98 242.40401 9.2197031e-39
4170.1802 -3155.55 259.173 9.2197031e-39
4140.7798 -3140.6399 251.446 9.2197031e-39
4164.4102 -3118.72 257.98999 9.2197031e-39
4166.0801 -3105.3 258.569 9.2197031e-39
4167.54 -3048.7 259.51901 9.2197031e-39
4157.4199 -3025.6699 257.03699 9.2197031e-39
4093.8999 -1351.14 256.543 9.2197031e-39
4074.1201 -1341.912 251.338 9.2197031e-39
4085.6399 -1344.627 254.397 9.2197031e-39
4210.79 -4029.52 261.42599 9.2197031e-39
4174.3301 -3144.0801 260.396 9.2197031e-39
4173.25 -3097.3701 260.569 9.2197031e-39
4180.3599 -3089.3799 262.552 9.2197031e-39
4191.73 -3085.3301 265.634 9.2197031e-39
4169.0898 -3022.3701 260.19299 9.2197031e-39
4177.0498 -3015.6899 262.39099 9.2197031e-39
4178.9902 -3003.8501 263.02701 9.2197031e-39
4190.5801 -3000.21 266.16599 9.2197031e-39
4192.3198 -2988.3301 266.75 9.2197031e-39
4201.5601 -2982.6201 269.28101 9.2197031e-39
4116.02 -1342.4919 262.552 9.2197031e-39
4165.1699 -1399.2739 275.151 9.2197031e-39
4182.25 -1397.77 279.73901 9.2197031e-39
4163.5498 -1385.8679 274.85101 9.2197031e-39
4165.9302 -1368.256 275.66199 9.2197031e-39
4163.2798 -1355.4451 275.077 9.2197031e-39
4161.1499 -1341.907 274.64099 9.2197031e-39
4161.5601 -1325.484 274.91299 9.2197031e-39
4159.75 -1311.145 274.57101 9.2197031e-39
4315.6699 -4730.27 282.59799 9.2197031e-39
4195.8398 -1399.8579 283.358 9.2197031e-39
4215.23 -1396.823 288.582 9.2197031e-39
4283.7598 -3034.5801 290.77802 9.2197031e-39
4249.77 -1410.6741 297.694 9.2197031e-39
4243.3901 -1401.364 296.077 9.2197031e-39
4231.1099 -1397.3569 292.82901 9.2197031e-39
4390.9399 -4730.8896 302.74701 9.2197031e-39
4412.2202 -4721.8101 308.535 9.2197031e-39
4354.52 -3075.5 309.32199 9.2197031e-39
4289.52 -1421.458 308.23099 9.2197031e-39
4262.02 -1414.9409 300.92999 9.2197031e-39
4276.5098 -1417.4771 304.78601 9.2197031e-39
4440.96 -4728.7803 316.16299 9.2197031e-39
4380.1201 -3080.1299 316.13 9.2197031e-39
4385.5 -3069.0901 317.681 9.2197031e-39
4373.4502 -3045.25 314.68799 9.2197031e-39
4355.52 -3017.6899 310.16 9.2197031e-39
4363.54 -3009.1799 312.392 9.2197031e-39
4369.1001 -2998.8999 313.98001 9.2197031e-39
4381.8198 -2993.55 317.44101 9.2197031e-39
4388.0498 -2983.6699 319.20499 9.2197031e-39
4390.1001 -2971.0601 319.88 9.2197031e-39
4304.0601 -1424.379 312.09601 9.2197031e-39
4324.75 -1422.626 317.65201 9.2197031e-39
4466.5 -4728.2197 323.00601 9.2197031e-39
4491.2402 -4725.6001 329.65799 9.2197031e-39
4400.2402 -2963.75 322.66599 9.2197031e-39
4351.71 -1431.3679 324.78601 9.2197031e-39
4338.6099 -1426.605 321.32501 9.2197031e-39
4520.4502 -4731.6299 337.418 9.2197031e-39
4371.8301 -1431.01 330.17599 9.2197031e-39
4402.0601 -1438.666 338.19501 9.2197031e-39
4394.3901 -1429.2109 336.23499 9.2197031e-39
4544.8999 -4727.5601 344.00699 9.2197031e-39
4416.8101 -1443.095 342.10001 9.2197031e-39
4438.75 -1442.6909 347.98001 9.2197031e-39
4530 -3031.99 356.73801 9.2197031e-39
4452.75 -1448.1479 351.67599 9.2197031e-39
4474.0298 -1448.89 357.36401 9.2197031e-39
4503.5 -1444.578 365.29999 9.2197031e-39
4533.96 -1440.209 373.49899 9.2197031e-39
4653.5098 -3093.3201 389.20499 9.2197031e-39
4563.77 -1436.853 381.51199 9.2197031e-39
4586.2798 -1438.616 387.52399 9.2197031e-39
4620.7202 -1660.9709 394.55301 9.2197031e-39
4617.1699 -1435.6431 395.82501 9.2197031e-39
4659.04 -1629.3889 405.12601 9.2197031e-39
4671.3701 -1608.8821 408.63 9.2197031e-39
4647.3799 -1433.6689 403.93201 9.2197031e-39
4677.71 -1432.1799 412.07001 9.2197031e-39
4715.9399 -1572.74 420.918 9.2197031e-39
4722.52 -1422.927 424.15799 9.2197031e-39
4760 -1676.7949 431.69 9.2197031e-39
4785.3701 -1404.3921 441.172 9.2197031e-39
4921.2202 -1680.718 474.823 9.2197031e-39
4906.5498 -1354.97 474.10699 9.2197031e-39
4963.6001 -1682.797 486.14999 9.2197031e-39
5019.8799 -1681.079 501.23499 9.2197031e-39
5085.6802 -1695.0859 518.71802 9.2197031e-39
5076.2998 -1680.3359 516.35199 9.2197031e-39
5117.2202 -1703.3301 527.08002 9.2197031e-39
5151.54 -1711.3 536.19098 9.2197031e-39
5185.6802 -1308.656 549.30603 9.2197031e-39
5178.52 -1291.104 547.56097 9.2197031e-39
5177.25 -1270.4819 547.42401 9.2197031e-39
5177.4902 -1248.9 547.70203 9.2197031e-39
5167.25 -1232.787 545.11798 9.2197031e-39
5190.0698 -1327.533 550.29498 9.2197031e-39
5423.0601 -1695.033 609.05798 9.2197031e-39
5498.6401 -1738.74 628.86499 9.2197031e-39
5470.71 -1724.4399 621.526 9.2197031e-39
5483.0601 -1700.53 625.07001 9.2197031e-39
5579.4902 -3639.6399 631.76501 9.2197031e-39
5592.7598 -3619.9299 635.513 9.2197031e-39
5523.2202 -1796.3199 634.87799 9.2197031e-39
5647.1499 -3624.1899 650.034 9.2197031e-39
5595.8999 -1759.95 654.69897 9.2197031e-39
5704.3101 -3629.02 665.29401 9.2197031e-39
5704.7598 -3600.99 665.68903 9.2197031e-39
5707.48 -3574.46 666.67902 9.2197031e-39
5713.3701 -3549.8301 668.49902 9.2197031e-39
5708.6802 -3519.76 667.54102 9.2197031e-39
5694.1499 -3484.96 663.99402 9.2197031e-39
5742.7002 -3482.48 677.01703 9.2197031e-39
5665.2998 -1722.86 673.64801 9.2197031e-39
5775.23 -2065.8999 699.698 9.2197031e-39
5773.5498 -2043.45 699.46997 9.2197031e-39
5807.1201 -2132.05 707.58502 9.2197031e-39
5796.3501 -2109.8398 704.91998 9.2197031e-39
5785.3999 -2087.8101 702.20502 9.2197031e-39
5843.1499 -2199.6802 716.565 9.2197031e-39
5830.04 -2176.96 713.27899 9.2197031e-39
5823.5 -2154.23 711.75201 9.2197031e-39
5887.1201 -2269.26 727.65399 9.2197031e-39
5877.4902 -2245.8 725.30603 9.2197031e-39
5859.9302 -2222.5898 720.83398 9.2197031e-39
5912.9702 -2293.1699 734.341 9.2197031e-39
5967.9199 -2342.54 748.56702 9.2197031e-39
5935.73 -2317.48 740.19397 9.2197031e-39
6006.5498 -2393.0801 758.41302 9.2197031e-39
5975.7598 -2367.1201 750.42499 9.2197031e-39
7061.02 -4104.29 1023.89 9.2197031e-39
6981.0098 -1639.5181 1026.77 9.2197031e-39
6958.52 -1609.1641 1021.05 9.2197031e-39
6965.2798 -1573.765 1023.21 9.2197031e-39
7231.6299 -4144.8896 1069.17 9.2197031e-39
7235.9502 -4103.8604 1070.73 9.2197031e-39
7244.29 -4064.9399 1073.35 9.2197031e-39
7244.29 -4022.4199 1073.77 9.2197031e-39
7242.98 -3979.6399 1073.84 9.2197031e-39
7242.1602 -3937.4099 1074.04 9.2197031e-39
7240.9199 -3895.3201 1074.12 9.2197031e-39
7247.3701 -3856.6699 1076.23 9.2197031e-39
7244.4399 -3814.45 1075.86 9.2197031e-39
7249.2598 -3775.5601 1077.54 9.2197031e-39
7246.4502 -3733.96 1077.1899 9.2197031e-39
7252.3599 -3695.8601 1079.15 9.2197031e-39
7144.5898 -1648.2571 1070.49 9.2197031e-39
7260.6802 -3658.74 1081.74 9.2197031e-39
7257.6602 -3617.78 1081.34 9.2197031e-39
7263.4502 -3580.0601 1083.26 9.2197031e-39
7256.9302 -3538.4399 1081.9301 9.2197031e-39
7259.25 -3499.96 1082.9301 9.2197031e-39
7329.1899 -1878.86 1117.64 9.2197031e-39
7326.7998 -1842.28 1117.36 9.2197031e-39
7309.6899 -1807.29 1113.13 9.2197031e-39
7313.4199 -1770.0699 1114.49 9.2197031e-39
7309.1499 -1733.73 1113.71 9.2197031e-39
7315.1001 -1695.9829 1115.6801 9.2197031e-39
7317.8599 -1658.51 1116.78 9.2197031e-39
7305.8398 -1473.824 1115.39 9.2197031e-39
7490.21 -3531.52 1144.46 9.2197031e-39
7622.5298 -3529.5801 1179.91 9.2197031e-39
7760.71 -3526.9399 1216.9399 9.2197031e-39
7875.8198 -3515.45 1247.87 9.2197031e-39
7875 -3471 1248.09 9.2197031e-39
7868.1499 -3425.22 1246.71 9.2197031e-39
7920.8701 -2579.5801 1269.16 9.2197031e-39
8126.9102 -3445.53 1315.79 9.2197031e-39
8467.3203 -3480.54 1406.6 9.2197031e-39
