# .PCD v0.7 - Point Cloud Data file format
VERSION 0.7
FIELDS x y z rgb
SIZE 4 4 4 4
TYPE F F F F
COUNT 1 1 1 1
WIDTH 311
HEIGHT 1
VIEWPOINT 0 0 0 1 0 0 0
POINTS 311
DATA ascii
3372.28 -3785.3201 39.308601 9.2197031e-39
3346.01 -3777.52 32.352402 9.2197031e-39
3358.95 -3777.98 35.8125 9.2197031e-39
3305.0481 -2383.6499 35.131023 9.2197031e-39
3323.02 -2389.49 39.886002 9.2197031e-39
3306.8501 -2371.3198 35.7341 9.2197031e-39
3138.2 1864.6599 32.352402 9.2197031e-39
3399.53 -3802.6201 46.434299 9.2197031e-39
3412.9399 -3805.5901 49.997898 9.2197031e-39
3385.6699 -3791.54 42.833401 9.2197031e-39
3371.6799 -2772.9299 49.132801 9.2197031e-39
3352.7 -2630.1802 45.459999 9.2197031e-39
3353.8799 -2617.78 45.896099 9.2197031e-39
3339.3899 -2584.76 42.343399 9.2197031e-39
3351.4399 -2586.72 45.550598 9.2197031e-39
3343.0601 -2527.27 43.891499 9.2197031e-39
3334.0601 -2469.96 42.049198 9.2197031e-39
3330.6399 -2444.1299 41.386002 9.2197031e-39
3326.3501 -2416.4199 40.5121 9.2197031e-39
3336.6851 -2402.71 43.414299 9.2197031e-39
3343.6023 -2403.7349 45.255501 9.2197031e-39
3327.4727 -2397.0876 41.0028 9.2197031e-39
3333.9734 -2397.45 42.739635 9.2197031e-39
3342.04 -2399.28 44.882702 9.2197031e-39
3323.51 -2386.28 40.047401 9.2197031e-39
3343.8269 -2387.5266 45.476334 9.2197031e-39
3341.0901 -2378.25 44.8339 9.2197031e-39
3319.8701 -2110.1602 41.7976 9.2197031e-39
3321.4902 -2113.6401 42.196953 9.2197031e-39
3318.1934 -2106.3599 41.385769 9.2197031e-39
3325.9175 -2107.095 43.44635 9.2197031e-39
3333.0801 -2094.1201 45.492298 9.2197031e-39
3321.3799 -2075.76 42.5411 9.2197031e-39
3324.0801 -2051.8701 43.500099 9.2197031e-39
3326.71 -2025.96 44.459999 9.2197031e-39
3329.53 -1996.04 45.510399 9.2197031e-39
3334.3701 -1949.26 47.266602 9.2197031e-39
3334.6499 -1929.08 47.539799 9.2197031e-39
3333.9299 -1913.8199 47.498299 9.2197031e-39
3337.1399 -1864.84 48.841301 9.2197031e-39
3337.5801 -1832.66 49.276402 9.2197031e-39
3333.0601 -1652.3931 49.844002 9.2197031e-39
3297.1101 -850.66498 48.123798 9.2197031e-39
3172.8899 1864.78 41.644199 9.2197031e-39
3351.7 -2035.22 51.0588 9.2197031e-39
3360.3899 -2012.9 53.605701 9.2197031e-39
3366.21 -2001.1899 55.2794 9.2197031e-39
3381.3401 -1961.11 59.7257 9.2197031e-39
3342.26 -1755.72 51.289001 9.2197031e-39
3340.6599 -1729.4 51.119099 9.2197031e-39
3340.76 -1679.175 51.6423 9.2197031e-39
3336.9399 -1666.7671 50.741402 9.2197031e-39
3331.77 -1594.151 50.072701 9.2197031e-39
3346.3201 -1235.453 57.506401 9.2197031e-39
3320.1201 -875.065 54.046501 9.2197031e-39
3332.5801 -846.44202 57.664501 9.2197031e-39
3309.1699 -829.82001 51.559898 9.2197031e-39
3207.6001 1863.5801 50.9263 9.2197031e-39
3402.1299 -1906.16 65.835999 9.2197031e-39
3362.1799 -721.66699 66.820297 9.2197031e-39
3350.1699 -699.05731 63.827801 9.2197031e-39
3242.4199 1850.0801 60.116699 9.2197031e-39
3276.9099 1866.26 69.512703 9.2197031e-39
3418.75 -1866.66 70.674797 9.2197031e-39
3440.6201 -1814.27 77.048798 9.2197031e-39
3456.6799 -1781 81.677101 9.2197031e-39
3474 -1746.12 86.658401 9.2197031e-39
3487.3501 -1723.62 90.4561 9.2197031e-39
3498.5901 -1707.8201 93.620201 9.2197031e-39
3513.4099 -1683.8621 97.823997 9.2197031e-39
3536.51 -1640.802 104.435 9.2197031e-39
3585.5901 -1537.5811 118.595 9.2197031e-39
3634.8701 -1438.869 132.763 9.2197031e-39
3658.3799 -1403.808 139.40601 9.2197031e-39
3734.5801 -2813.77 145.90199 9.2197031e-39
3670.76 -1395.405 142.804 9.2197031e-39
3681.24 -1391.676 145.647 9.2197031e-39
3696.02 -1379.083 149.729 9.2197031e-39
3778.1001 -2880.3301 156.899 9.2197031e-39
3778.8 -2859.1001 157.297 9.2197031e-39
3777.45 -2806.05 157.459 9.2197031e-39
3702.05 -1385.491 151.28101 9.2197031e-39
3714.1101 -1379.4651 154.56799 9.2197031e-39
3723.6399 -1378.915 157.125 9.2197031e-39
3826.9299 -3115.8501 167.65401 9.2197031e-39
3819.95 -3088.3501 166.054 9.2197031e-39
3815.75 -3066.04 165.151 9.2197031e-39
3824.25 -3063.76 167.448 9.2197031e-39
3807.26 -2819.8301 165.306 9.2197031e-39
3789.3301 -2809.73 160.605 9.2197031e-39
3740.98 -1381.652 161.743 9.2197031e-39
3735.01 -1374.939 160.209 9.2197031e-39
3752.9299 -1377.032 164.987 9.2197031e-39
3763.5701 -1375.176 167.855 9.2197031e-39
3770.9199 -1379.509 169.78 9.2197031e-39
3856.8301 -3081.8501 175.994 9.2197031e-39
3840.99 -3073.74 171.83299 9.2197031e-39
3865.52 -3079.1499 178.347 9.2197031e-39
3843.76 -2928.1599 174.00999 9.2197031e-39
3847.8999 -2897.99 175.41499 9.2197031e-39
3788.97 -1382.373 174.584 9.2197031e-39
3783.1101 -1375.29 173.084 9.2197031e-39
3800.77 -1379.259 177.77499 9.2197031e-39
3880.48 -3085.26 182.29201 9.2197031e-39
3899.46 -2910.1101 189.10201 9.2197031e-39
3813.1799 -1375.4451 181.13499 9.2197031e-39
3825.6799 -1371.79 184.52 9.2197031e-39
3838.29 -1368.2949 187.931 9.2197031e-39
3951.6201 -3811.54 194.179 9.2197031e-39
3916.9299 -3120.8799 191.703 9.2197031e-39
3857.8999 -1370.915 193.15401 9.2197031e-39
3850.47 -1365.796 191.216 9.2197031e-39
3870.72 -1367.8569 196.619 9.2197031e-39
3882.54 -1366.603 199.79601 9.2197031e-39
4000.78 -3888.6399 206.58099 9.2197031e-39
3969.3301 -3367.3201 203.302 9.2197031e-39
3949.3601 -3149.53 200.104 9.2197031e-39
3970.3701 -3069.0601 206.522 9.2197031e-39
3890.52 -1371.198 201.886 9.2197031e-39
3902.4199 -1370.203 205.082 9.2197031e-39
3915.52 -1367.75 208.616 9.2197031e-39
4006.24 -3192.6399 214.908 9.2197031e-39
3929.3 -1364.668 212.33501 9.2197031e-39
3940.8301 -1364.943 215.42 9.2197031e-39
3951.8101 -1366.1479 218.349 9.2197031e-39
4079.71 -3744.46 229.138 9.2197031e-39
4039.01 -3253.77 223.07899 9.2197031e-39
4045.04 -3054.1101 226.664 9.2197031e-39
3964.6201 -1365.136 221.789 9.2197031e-39
3976.29 -1365.844 224.90601 9.2197031e-39
4084.27 -3722.4399 230.577 9.2197031e-39
4082.3 -3689.1299 230.379 9.2197031e-39
4098.7798 -3689.74 234.785 9.2197031e-39
4093.1399 -3651.3999 233.65401 9.2197031e-39
4097.9302 -3632.1299 235.125 9.2197031e-39
4096.8701 -3603.5 235.123 9.2197031e-39
3995.95 -1356.6599 230.26199 9.2197031e-39
4007.78 -1357.729 233.41901 9.2197031e-39
4022.77 -1355.141 237.45799 9.2197031e-39
4101.9199 -3210.73 240.35001 9.2197031e-39
4047.96 -1340.6741 244.34599 9.2197031e-39
4058.1499 -1344.582 247.034 9.2197031e-39
4068.3201 -1348.604 249.71899 9.2197031e-39
4177.48 -3965.0901 253.14301 9.2197031e-39
4168.8101 -3154.1399 258.82001 9.2197031e-39
4141.46 -3141.3501 251.621 9.2197031e-39
4156.7402 -3111.0801 256.01199 9.2197031e-39
4166.0801 -3105.3 258.569 9.2197031e-39
4153.77 -3022.3999 256.091 9.2197031e-39
4167.6099 -3021.0701 259.811 9.2197031e-39
4093.8999 -1351.14 256.543 9.2197031e-39
4090.8501 -1338.7261 255.84801 9.2197031e-39
4176.3999 -3146.1799 260.931 9.2197031e-39
4173.25 -3097.3701 260.569 9.2197031e-39
4178.9399 -3088.03 262.18301 9.2197031e-39
4193.1699 -3086.6599 266.00699 9.2197031e-39
4169.71 -3050.6799 260.082 9.2197031e-39
4177.0498 -3015.6899 262.39099 9.2197031e-39
4177.4902 -3002.5801 262.63901 9.2197031e-39
4190.5801 -3000.21 266.16599 9.2197031e-39
4190.8101 -2987.0801 266.35599 9.2197031e-39
4194.7002 -2977.0801 267.49701 9.2197031e-39
4115.3599 -1343.218 262.367 9.2197031e-39
4164.46 -1399.957 274.95599 9.2197031e-39
4162.8501 -1386.557 274.65701 9.2197031e-39
4160.3901 -1373.817 274.12399 9.2197031e-39
4163.2798 -1355.4451 275.077 9.2197031e-39
4161.1499 -1341.907 274.64099 9.2197031e-39
4161.5601 -1325.484 274.91299 9.2197031e-39
4159.0898 -1311.864 274.38501 9.2197031e-39
4315.6699 -4730.27 282.59799 9.2197031e-39
4184.3799 -1395.7419 280.32999 9.2197031e-39
4195.8398 -1399.8579 283.358 9.2197031e-39
4214.5098 -1397.4861 288.38199 9.2197031e-39
4282.2202 -3033.3701 290.379 9.2197031e-39
4253.1001 -1422.5801 298.466 9.2197031e-39
4248.2998 -1411.96 297.28601 9.2197031e-39
4244.8599 -1400.064 296.483 9.2197031e-39
4231.1099 -1397.3569 292.82901 9.2197031e-39
4390.9399 -4730.8896 302.74701 9.2197031e-39
4415.9199 -4729.9697 309.44501 9.2197031e-39
4354.52 -3075.5 309.32199 9.2197031e-39
4270.52 -1422.516 303.13199 9.2197031e-39
4290.2798 -1420.835 308.439 9.2197031e-39
4436.7798 -4719.75 315.13101 9.2197031e-39
4380.1201 -3080.1299 316.13 9.2197031e-39
4383.9399 -3067.9099 317.27301 9.2197031e-39
4366.3501 -3040.03 312.84 9.2197031e-39
4355.52 -3017.6899 310.16 9.2197031e-39
4361.1499 -3007.48 311.76801 9.2197031e-39
4367.4902 -2997.79 313.56201 9.2197031e-39
4380.21 -2992.45 317.01999 9.2197031e-39
4385.6099 -2982.04 318.569 9.2197031e-39
4304.0601 -1424.379 312.09601 9.2197031e-39
4323.98 -1423.235 317.44101 9.2197031e-39
4465.6499 -4726.4199 322.79501 9.2197031e-39
4491.2402 -4725.6001 329.65799 9.2197031e-39
4391.7402 -2972.1299 320.30701 9.2197031e-39
4400.2402 -2963.75 322.66599 9.2197031e-39
4338.6099 -1426.605 321.32501 9.2197031e-39
4358.6899 -1426.01 326.70599 9.2197031e-39
4516.4702 -4723.6104 336.43301 9.2197031e-39
4371.8301 -1431.01 330.17599 9.2197031e-39
4386.54 -1435.0239 334.07599 9.2197031e-39
4402.0601 -1438.666 338.19501 9.2197031e-39
4545.7998 -4729.3398 344.229 9.2197031e-39
4409.6602 -1448.197 340.13501 9.2197031e-39
4430.7598 -1448.2881 345.785 9.2197031e-39
4532.4702 -3033.5601 357.38599 9.2197031e-39
4452.75 -1448.1479 351.67599 9.2197031e-39
4481.2998 -1443.984 359.36099 9.2197031e-39
4503.5 -1444.578 365.29999 9.2197031e-39
4525.79 -1445.5129 371.258 9.2197031e-39
4556.3701 -1441.5601 379.48499 9.2197031e-39
4638.5698 -3084.0601 385.298 9.2197031e-39
4586.2798 -1438.616 387.52399 9.2197031e-39
4611.8398 -1664.885 392.13699 9.2197031e-39
4617.1699 -1435.6431 395.82501 9.2197031e-39
4659.9302 -1628.99 405.367 9.2197031e-39
4671.3701 -1608.8821 408.63 9.2197031e-39
4647.3799 -1433.6689 403.93201 9.2197031e-39
4677.71 -1432.1799 412.07001 9.2197031e-39
4749.1499 -1681.004 428.745 9.2197031e-39
4723.8301 -1569.0029 423.07001 9.2197031e-39
4723.3599 -1422.442 424.388 9.2197031e-39
4777.75 -1408.6909 439.08801 9.2197031e-39
4906.5498 -1354.97 474.10699 9.2197031e-39
4969.1099 -1680.939 487.64301 9.2197031e-39
5002.3901 -1686.804 496.49701 9.2197031e-39
5081.8398 -1678.578 517.85199 9.2197031e-39
5113.5098 -1704.4399 526.07599 9.2197031e-39
5091.2402 -1693.379 520.22198 9.2197031e-39
5158.0498 -1709.4299 537.953 9.2197031e-39
5185.6802 -1308.656 549.30603 9.2197031e-39
5184.5898 -1288.031 549.21698 9.2197031e-39
5178.1099 -1270.0349 547.65997 9.2197031e-39
5177.4902 -1248.9 547.70203 9.2197031e-39
5175.7998 -1228.1641 547.45398 9.2197031e-39
5189.2002 -1327.9561 550.05701 9.2197031e-39
5408.0801 -1698.9141 605.00702 9.2197031e-39
5498.6401 -1738.74 628.86499 9.2197031e-39
5471.6499 -1724.21 621.78003 9.2197031e-39
5482.1201 -1700.76 624.81598 9.2197031e-39
5579.4902 -3639.6399 631.76501 9.2197031e-39
5596.9502 -3622.4299 636.61102 9.2197031e-39
5519.4302 -1797.09 633.85602 9.2197031e-39
5640.4102 -3620.25 648.26898 9.2197031e-39
5600.6299 -1758.95 655.97601 9.2197031e-39
5702.6201 -3628.05 664.84998 9.2197031e-39
5713.2598 -3605.75 667.91901 9.2197031e-39
5708.3301 -3574.9299 666.90302 9.2197031e-39
5713.3701 -3549.8301 668.49902 9.2197031e-39
5708.6802 -3519.76 667.54102 9.2197031e-39
5694.1499 -3484.96 663.99402 9.2197031e-39
5665.2998 -1722.86 673.64801 9.2197031e-39
5755.7402 -3489.05 680.44501 9.2197031e-39
5775.23 -2065.8999 699.698 9.2197031e-39
5807.1201 -2132.05 707.58502 9.2197031e-39
5796.3501 -2109.8398 704.91998 9.2197031e-39
5785.3999 -2087.8101 702.20502 9.2197031e-39
5780.29 -2042.9 701.28003 9.2197031e-39
5846.04 -2199.6299 717.34198 9.2197031e-39
5839.6899 -2176.6899 715.867 9.2197031e-39
5825.4302 -2154.1602 712.27002 9.2197031e-39
5877.4902 -2245.8 725.30603 9.2197031e-39
5867.6602 -2222.52 722.90302 9.2197031e-39
5934.7598 -2317.46 739.935 9.2197031e-39
5912.9702 -2293.1699 734.341 9.2197031e-39
5897.75 -2269.3501 730.49799 9.2197031e-39
5966.96 -2342.51 748.30902 9.2197031e-39
6007.52 -2393.1299 758.67102 9.2197031e-39
5984.4502 -2367.51 752.74701 9.2197031e-39
7053.1602 -4100.4199 1021.82 9.2197031e-39
6981.0098 -1639.5181 1026.77 9.2197031e-39
6958.52 -1609.1641 1021.05 9.2197031e-39
6966.23 -1573.5911 1023.47 9.2197031e-39
7232.5098 -4145.3101 1069.4 9.2197031e-39
7245.6299 -4108.4199 1073.28 9.2197031e-39
7244.29 -4064.9399 1073.35 9.2197031e-39
7244.29 -4022.4199 1073.77 9.2197031e-39
7243.8701 -3980.03 1074.08 9.2197031e-39
7242.1602 -3937.4099 1074.04 9.2197031e-39
7248.9902 -3898.6799 1076.25 9.2197031e-39
7246.4702 -3856.3 1075.99 9.2197031e-39
7244.4399 -3814.45 1075.86 9.2197031e-39
7249.2598 -3775.5601 1077.54 9.2197031e-39
7246.4502 -3733.96 1077.1899 9.2197031e-39
7253.2798 -3696.1899 1079.39 9.2197031e-39
7145.54 -1648.109 1070.75 9.2197031e-39
7260.6802 -3658.74 1081.74 9.2197031e-39
7253.9902 -3616.51 1080.37 9.2197031e-39
7263.4502 -3580.0601 1083.26 9.2197031e-39
7264.2998 -3540.8401 1083.88 9.2197031e-39
7259.25 -3499.96 1082.9301 9.2197031e-39
7328.23 -1878.95 1117.39 9.2197031e-39
7327.7598 -1842.1801 1117.62 9.2197031e-39
7308.73 -1807.39 1112.87 9.2197031e-39
7313.4199 -1770.0699 1114.49 9.2197031e-39
7309.1499 -1733.73 1113.71 9.2197031e-39
7314.1499 -1696.115 1115.42 9.2197031e-39
7317.8599 -1658.51 1116.78 9.2197031e-39
7306.79 -1473.641 1115.64 9.2197031e-39
7490.21 -3531.52 1144.46 9.2197031e-39
7624.3901 -3530.1299 1180.4 9.2197031e-39
7763.5098 -3527.74 1217.6801 9.2197031e-39
7862.75 -3511.8301 1244.41 9.2197031e-39
7875 -3471 1248.09 9.2197031e-39
7859.71 -3423.04 1244.47 9.2197031e-39
7920.8701 -2579.5801 1269.16 9.2197031e-39
8126.9102 -3445.53 1315.79 9.2197031e-39
8459.79 -3478.75 1404.6 9.2197031e-39
