# .PCD v0.7 - Point Cloud Data file format
VERSION 0.7
FIELDS x y z rgb
SIZE 4 4 4 4
TYPE F F F F
COUNT 1 1 1 1
WIDTH 315
HEIGHT 1
VIEWPOINT 0 0 0 1 0 0 0
POINTS 315
DATA ascii
3372.97 -3798.3 39.367298 9.2197031e-39
3346.2 -3782.51 32.352402 9.2197031e-39
3359.0901 -3780.98 35.819302 9.2197031e-39
3309.6001 -2391.1201 36.2752 9.2197031e-39
3323.48 -2391.4399 39.989201 9.2197031e-39
3305.5 -2387.625 35.213249 9.2197031e-39
3303.3999 -2378.8101 34.737701 9.2197031e-39
3305.4199 -2368.5 35.378799 9.2197031e-39
3138.3799 1859.6599 32.352402 9.2197031e-39
3412.79 -3803.5901 49.9753 9.2197031e-39
3399.1699 -3797.6299 46.389099 9.2197031e-39
3385.55 -3789.54 42.819901 9.2197031e-39
3370.1399 -2763.05 48.817299 9.2197031e-39
3352.7 -2630.1802 45.459999 9.2197031e-39
3352 -2606.95 45.499901 9.2197031e-39
3351.4399 -2586.72 45.550598 9.2197031e-39
3338.0801 -2575.8599 42.0797 9.2197031e-39
3343.0601 -2527.27 43.891499 9.2197031e-39
3334.26 -2470.9399 42.0919 9.2197031e-39
3330.23 -2442.1699 41.296101 9.2197031e-39
3347.3201 -2410.0801 46.188801 9.2197031e-39
3324.3501 -2404.0701 40.097801 9.2197031e-39
3335.9832 -2402.7566 43.226364 9.2197031e-39
3344.1133 -2406.6301 45.364567 9.2197031e-39
3327.5627 -2394.7476 41.04995 9.2197031e-39
3336.5068 -2396.5999 43.426968 9.2197031e-39
3350.01 -2397.1802 47.036098 9.2197031e-39
3342.7852 -2387.78 45.193901 9.2197031e-39
3340.3601 -2376.3901 44.656799 9.2197031e-39
3318.8 -2120.1602 41.4132 9.2197031e-39
3318.2969 -2111.8401 41.359768 9.2197031e-39
3321.95 -2111.7 42.34 9.2197031e-39
3318.0901 -2100.55 41.415401 9.2197031e-39
3326.21 -2104.5833 43.55003 9.2197031e-39
3332.9651 -2092.0049 45.48275 9.2197031e-39
3321.3799 -2075.76 42.5411 9.2197031e-39
3324.0801 -2051.8701 43.500099 9.2197031e-39
3326.71 -2025.96 44.459999 9.2197031e-39
3329.53 -1996.04 45.510399 9.2197031e-39
3334.3701 -1949.26 47.266602 9.2197031e-39
3334.51 -1930.0699 47.492699 9.2197031e-39
3332.6201 -1923.72 47.048901 9.2197031e-39
3334.8 -1883.6801 48.029701 9.2197031e-39
3338.1499 -1827.6899 49.478901 9.2197031e-39
3332.9199 -1654.386 49.7854 9.2197031e-39
3297.05 -861.664 47.999699 9.2197031e-39
3172.75 1869.77 41.655499 9.2197031e-39
3351.1399 -2037.14 50.890301 9.2197031e-39
3360.3899 -2012.9 53.605701 9.2197031e-39
3363.55 -2009.75 54.4827 9.2197031e-39
3340.6699 -1770.63 50.715199 9.2197031e-39
3340.5601 -1730.39 51.083099 9.2197031e-39
3339.51 -1693.11 51.1693 9.2197031e-39
3336.54 -1671.748 50.583698 9.2197031e-39
3331.77 -1594.151 50.072701 9.2197031e-39
3346.3201 -1235.453 57.506401 9.2197031e-39
3320.3201 -866.06897 54.188702 9.2197031e-39
3332.46 -850.43896 57.5923 9.2197031e-39
3309.1399 -831.82001 51.532902 9.2197031e-39
3207.5 1868.5801 50.948898 9.2197031e-39
3383.46 -1954.47 60.360199 9.2197031e-39
3398.7 -1916.5601 64.815697 9.2197031e-39
3362.6101 -712.67938 67.0233 9.2197031e-39
3350.1699 -699.05731 63.827801 9.2197031e-39
3242.52 1841.0801 60.055698 9.2197031e-39
3276.9299 1861.26 69.467499 9.2197031e-39
3422.8999 -1854.4 71.907898 9.2197031e-39
3439.97 -1816.15 76.854797 9.2197031e-39
3456.3501 -1781.9399 81.578102 9.2197031e-39
3470.22 -1756.39 85.545998 9.2197031e-39
3483.8401 -1732.9301 89.424103 9.2197031e-39
3497.51 -1710.6 93.304398 9.2197031e-39
3508.27 -1696.7991 96.321297 9.2197031e-39
3540.6299 -1630.6741 105.638 9.2197031e-39
3568 -1579.776 113.469 9.2197031e-39
3623.1599 -1466.282 129.36 9.2197031e-39
3656.79 -1407.449 138.94501 9.2197031e-39
3733.3501 -2812.22 145.591 9.2197031e-39
3670.3601 -1396.311 142.686 9.2197031e-39
3681.6599 -1390.7729 145.767 9.2197031e-39
3696.02 -1379.083 149.729 9.2197031e-39
3773.27 -2874.0701 155.66701 9.2197031e-39
3782.5 -2863.72 158.242 9.2197031e-39
3776.1499 -2804.5601 157.127 9.2197031e-39
3701.6299 -1386.387 151.157 9.2197031e-39
3712.8 -1382.1389 154.19099 9.2197031e-39
3723.6399 -1378.915 157.125 9.2197031e-39
3827.98 -3117.53 167.916 9.2197031e-39
3825.23 -3096.73 167.38699 9.2197031e-39
3816.8201 -3067.71 165.42101 9.2197031e-39
3824.25 -3063.76 167.448 9.2197031e-39
3789.3301 -2809.73 160.605 9.2197031e-39
3797.3501 -2808.8701 162.759 9.2197031e-39
3770.4399 -1380.376 169.64301 9.2197031e-39
3735.46 -1374.056 160.338 9.2197031e-39
3742.3601 -1379.015 162.13699 9.2197031e-39
3753.3999 -1376.158 165.121 9.2197031e-39
3763.1001 -1376.046 167.72 9.2197031e-39
3856.27 -3081.03 175.853 9.2197031e-39
3841.54 -3074.5701 171.972 9.2197031e-39
3861.5701 -3073.46 177.347 9.2197031e-39
3837.53 -2920.51 172.41701 9.2197031e-39
3854.96 -2906.22 177.226 9.2197031e-39
3783.1101 -1375.29 173.084 9.2197031e-39
3794.4099 -1372.9399 176.13499 9.2197031e-39
3801.27 -1378.406 177.918 9.2197031e-39
3910.01 -3111.24 189.944 9.2197031e-39
3878.2 -3082.03 181.713 9.2197031e-39
3813.1799 -1375.4451 181.13499 9.2197031e-39
3825.6799 -1371.79 184.52 9.2197031e-39
3845.7 -1373.304 189.864 9.2197031e-39
3838.8201 -1367.4561 188.07899 9.2197031e-39
3952.78 -3814.29 194.464 9.2197031e-39
3913.47 -2925.3301 192.70399 9.2197031e-39
3857.8999 -1370.915 193.15401 9.2197031e-39
3870.72 -1367.8569 196.619 9.2197031e-39
3882.54 -1366.603 199.79601 9.2197031e-39
3997.21 -3880.4199 205.70799 9.2197031e-39
3980.6499 -3385.97 206.149 9.2197031e-39
3962.79 -3167.8899 203.51801 9.2197031e-39
3981.1599 -3159.5601 208.519 9.2197031e-39
3975.3999 -3075.1399 207.811 9.2197031e-39
3890.52 -1371.198 201.886 9.2197031e-39
3907.51 -1362.9189 206.51601 9.2197031e-39
3916.1001 -1366.9451 208.77699 9.2197031e-39
3929.3 -1364.668 212.33501 9.2197031e-39
3939.6599 -1366.53 215.091 9.2197031e-39
3952.4099 -1365.36 218.515 9.2197031e-39
4033.6899 -3246.6299 221.72701 9.2197031e-39
4050.4299 -3059.8601 228.05 9.2197031e-39
3965.22 -1364.353 221.957 9.2197031e-39
3976.8999 -1365.067 225.076 9.2197031e-39
4084.3401 -3753.24 230.293 9.2197031e-39
4090.3899 -3733.8 232.105 9.2197031e-39
4086.1299 -3696.0901 231.33501 9.2197031e-39
4100.7202 -3693.2 235.271 9.2197031e-39
4094.1299 -3653.1299 233.901 9.2197031e-39
4102.4302 -3639.8401 236.254 9.2197031e-39
4096.3599 -3602.6499 234.996 9.2197031e-39
4003.45 -1363.094 232.20599 9.2197031e-39
3995.95 -1356.6599 230.26199 9.2197031e-39
4022.77 -1355.141 237.45799 9.2197031e-39
4102.5601 -3211.48 240.513 9.2197031e-39
4039.1201 -1351.246 241.875 9.2197031e-39
4051.77 -1352.075 245.25301 9.2197031e-39
4196.6401 -4002.1599 257.90799 9.2197031e-39
4166.7598 -3152.02 258.29001 9.2197031e-39
4142.8198 -3142.78 251.97099 9.2197031e-39
4159.1201 -3128.6699 256.47699 9.2197031e-39
4156.04 -3110.3899 255.832 9.2197031e-39
4163.27 -3102.55 257.84299 9.2197031e-39
4169.71 -3093.96 259.65399 9.2197031e-39
4158.1099 -3040.0901 257.078 9.2197031e-39
4153.04 -3021.74 255.90199 9.2197031e-39
4161.7202 -3015.8799 258.285 9.2197031e-39
4094.5601 -1350.4089 256.72601 9.2197031e-39
4072.1899 -1344.1431 250.798 9.2197031e-39
4089.55 -1340.2009 255.485 9.2197031e-39
4177.5098 -3086.6699 261.814 9.2197031e-39
4183.0898 -3077.3 263.39999 9.2197031e-39
4168.8901 -3008.6299 260.27499 9.2197031e-39
4175.25 -3000.6699 262.05701 9.2197031e-39
4185.3101 -2995.8101 264.79901 9.2197031e-39
4187.02 -2983.97 265.37201 9.2197031e-39
4117.3501 -1341.041 262.92099 9.2197031e-39
4222.1699 -2999.23 274.634 9.2197031e-39
4159.3599 -1390.001 273.68799 9.2197031e-39
4165.8701 -1398.592 275.34698 9.2197031e-39
4181.54 -1398.446 279.543 9.2197031e-39
4156.2402 -1377.988 272.97 9.2197031e-39
4161.8999 -1356.8469 274.69501 9.2197031e-39
4157.75 -1345.444 273.69501 9.2197031e-39
4153.46 -1334.048 272.66 9.2197031e-39
4157.0801 -1314.0239 273.82599 9.2197031e-39
4314.5298 -4727.5098 282.32001 9.2197031e-39
4278.3799 -3030.3301 289.38101 9.2197031e-39
4194.4102 -1401.197 282.96201 9.2197031e-39
4212.3501 -1399.475 287.78299 9.2197031e-39
4253.1001 -1422.5801 298.466 9.2197031e-39
4246.8198 -1413.2471 296.87799 9.2197031e-39
4226.75 -1401.296 291.62201 9.2197031e-39
4242.6602 -1402.0129 295.875 9.2197031e-39
4412.2202 -4721.8101 308.535 9.2197031e-39
4386.1001 -4719.98 301.55899 9.2197031e-39
4352.3501 -3015.3899 309.33301 9.2197031e-39
4289.52 -1421.458 308.23099 9.2197031e-39
4276.5098 -1417.4771 304.78601 9.2197031e-39
4440.1299 -4726.9697 315.95599 9.2197031e-39
4367.6699 -3085.72 312.742 9.2197031e-39
4377.7798 -3078.3401 315.52301 9.2197031e-39
4379.2402 -3064.3899 316.04999 9.2197031e-39
4370.29 -3042.9299 313.866 9.2197031e-39
4357.1602 -3004.6499 310.728 9.2197031e-39
4361.0698 -2993.3201 311.88699 9.2197031e-39
4371.3301 -2986.3799 314.702 9.2197031e-39
4382.3599 -2979.8701 317.72101 9.2197031e-39
4388.4702 -2969.98 319.453 9.2197031e-39
4323.98 -1423.235 317.44101 9.2197031e-39
4310.8999 -1418.834 313.98001 9.2197031e-39
4465.6499 -4726.4199 322.79501 9.2197031e-39
4490.3799 -4723.8101 329.44299 9.2197031e-39
4410.9102 -2970.6299 325.45599 9.2197031e-39
4337.8398 -1427.208 321.11301 9.2197031e-39
4358.6899 -1426.01 326.70599 9.2197031e-39
4515.5898 -4721.8301 336.215 9.2197031e-39
4394.1699 -1444.407 336.02499 9.2197031e-39
4371.8301 -1431.01 330.17599 9.2197031e-39
4386.54 -1435.0239 334.07599 9.2197031e-39
4544 -4725.79 343.784 9.2197031e-39
4444.7202 -1453.672 349.46899 9.2197031e-39
4409.6602 -1448.197 340.13501 9.2197031e-39
4430.7598 -1448.2881 345.785 9.2197031e-39
4521.7402 -3026.78 354.57999 9.2197031e-39
4474.0298 -1448.89 357.36401 9.2197031e-39
4502.6899 -1445.116 365.077 9.2197031e-39
4533.1499 -1440.739 373.27499 9.2197031e-39
4555.5498 -1442.083 379.26001 9.2197031e-39
4586.2798 -1438.616 387.52399 9.2197031e-39
4661.7998 -3098.46 391.37601 9.2197031e-39
4623.3901 -1659.797 395.27802 9.2197031e-39
4617.1699 -1435.6431 395.82501 9.2197031e-39
4665.2402 -1626.594 406.811 9.2197031e-39
4671.3701 -1608.8821 408.63 9.2197031e-39
4647.3799 -1433.6689 403.93201 9.2197031e-39
4676.8701 -1432.673 411.84 9.2197031e-39
4752.77 -1679.6011 429.72601 9.2197031e-39
4723.8301 -1569.0029 423.07001 9.2197031e-39
4722.52 -1422.927 424.15799 9.2197031e-39
4785.3701 -1404.3921 441.172 9.2197031e-39
4915.73 -1682.626 473.33401 9.2197031e-39
4898.8901 -1359.2 472.01401 9.2197031e-39
4964.52 -1682.4871 486.39899 9.2197031e-39
5023.5601 -1679.873 502.233 9.2197031e-39
5076.2998 -1680.3359 516.35199 9.2197031e-39
5107.0098 -1706.37 524.31799 9.2197031e-39
5093.0898 -1692.8091 520.72302 9.2197031e-39
5151.54 -1711.3 536.19098 9.2197031e-39
5186.5498 -1308.225 549.54401 9.2197031e-39
5177.6499 -1291.543 547.32501 9.2197031e-39
5177.25 -1270.4819 547.42401 9.2197031e-39
5169.7598 -1252.991 545.591 9.2197031e-39
5167.25 -1232.787 545.11798 9.2197031e-39
5189.2002 -1327.9561 550.05701 9.2197031e-39
5405.27 -1699.641 604.24799 9.2197031e-39
5498.6401 -1738.74 628.86499 9.2197031e-39
5470.71 -1724.4399 621.526 9.2197031e-39
5479.3101 -1701.46 624.05499 9.2197031e-39
5583.6602 -3642.1799 632.85602 9.2197031e-39
5602.8198 -3625.9199 638.14697 9.2197031e-39
5517.54 -1797.47 633.34399 9.2197031e-39
5638.7202 -3619.27 647.82703 9.2197031e-39
5588.3398 -1761.55 652.65698 9.2197031e-39
5698.3901 -3625.6299 663.74103 9.2197031e-39
5699.6602 -3598.1299 664.35101 9.2197031e-39
5704.0601 -3572.5901 665.78302 9.2197031e-39
5709.9399 -3547.99 667.59802 9.2197031e-39
5706.96 -3518.8501 667.08899 9.2197031e-39
5695.8799 -3485.8501 664.44897 9.2197031e-39
5658.6899 -1724.3199 671.86401 9.2197031e-39
5754.8701 -3488.6101 680.21698 9.2197031e-39
5770.4102 -2066.26 698.40503 9.2197031e-39
5771.6201 -2043.61 698.953 9.2197031e-39
5810.98 -2131.8701 708.62097 9.2197031e-39
5791.52 -2110.1001 703.62598 9.2197031e-39
5780.5801 -2088.1201 700.91101 9.2197031e-39
5856.0698 -2222.6299 719.79901 9.2197031e-39
5839.2798 -2199.75 715.53003 9.2197031e-39
5827.1401 -2177.04 712.50299 9.2197031e-39
5818.6699 -2154.4102 710.45801 9.2197031e-39
5894.8501 -2269.3198 729.72302 9.2197031e-39
5873.6201 -2245.8 724.271 9.2197031e-39
5912.0098 -2293.1602 734.08301 9.2197031e-39
5958.27 -2342.2 745.98499 9.2197031e-39
5943.4502 -2317.6802 742.26001 9.2197031e-39
6007.52 -2393.1299 758.67102 9.2197031e-39
5984.4502 -2367.51 752.74701 9.2197031e-39
7052.29 -4099.9902 1021.59 9.2197031e-39
6979.1001 -1639.832 1026.26 9.2197031e-39
6968.04 -1607.5071 1023.62 9.2197031e-39
6965.2798 -1573.765 1023.21 9.2197031e-39
7233.3901 -4145.73 1069.63 9.2197031e-39
7135.9902 -1649.593 1068.17 9.2197031e-39
7245.6299 -4108.4199 1073.28 9.2197031e-39
7245.1699 -4065.3401 1073.58 9.2197031e-39
7245.1699 -4022.8101 1074 9.2197031e-39
7243.8701 -3980.03 1074.08 9.2197031e-39
7249.2998 -3940.46 1075.92 9.2197031e-39
7240.9199 -3895.3201 1074.12 9.2197031e-39
7247.3701 -3856.6699 1076.23 9.2197031e-39
7243.54 -3814.1001 1075.62 9.2197031e-39
7250.1699 -3775.9099 1077.77 9.2197031e-39
7246.4502 -3733.96 1077.1899 9.2197031e-39
7253.2798 -3696.1899 1079.39 9.2197031e-39
7260.6802 -3658.74 1081.74 9.2197031e-39
7254.9102 -3616.8301 1080.61 9.2197031e-39
7261.6201 -3579.4399 1082.78 9.2197031e-39
7265.23 -3541.1399 1084.12 9.2197031e-39
7250.9302 -3497.3301 1080.72 9.2197031e-39
7329.1899 -1878.86 1117.64 9.2197031e-39
7318.1499 -1843.15 1115.04 9.2197031e-39
7310.6499 -1807.1801 1113.39 9.2197031e-39
7314.3701 -1769.96 1114.75 9.2197031e-39
7310.1099 -1733.61 1113.97 9.2197031e-39
7315.1001 -1695.9829 1115.6801 9.2197031e-39
7318.8198 -1658.37 1117.04 9.2197031e-39
7306.79 -1473.641 1115.64 9.2197031e-39
7489.2798 -3531.24 1144.21 9.2197031e-39
7629.9702 -3531.78 1181.88 9.2197031e-39
7762.5801 -3527.47 1217.4301 9.2197031e-39
7871.1499 -3514.1599 1246.64 9.2197031e-39
7872.1899 -3470.25 1247.35 9.2197031e-39
7861.5898 -3423.53 1244.97 9.2197031e-39
7903.52 -2578.3301 1264.53 9.2197031e-39
8125.9702 -3445.3 1315.55 9.2197031e-39
8517.2402 -3492.4299 1419.85 9.2197031e-39
