# .PCD v0.7 - Point Cloud Data file format
VERSION 0.7
FIELDS x y z rgb
SIZE 4 4 4 4
TYPE F F F F
COUNT 1 1 1 1
WIDTH 312
HEIGHT 1
VIEWPOINT 0 0 0 1 0 0 0
POINTS 312
DATA ascii
3359.3999 -3787.97 35.835098 9.2197031e-39
3345.8301 -3772.52 32.352402 9.2197031e-39
3371.8999 -3778.3301 39.277 9.2197031e-39
3306.7532 -2385.1101 35.573765 9.2197031e-39
3303.7366 -2375.0833 34.86517 9.2197031e-39
3138.3401 1860.6599 32.352402 9.2197031e-39
3399.3799 -3800.6201 46.416199 9.2197031e-39
3412.79 -3803.5901 49.9753 9.2197031e-39
3385.48 -3788.54 42.813099 9.2197031e-39
3371.52 -2771.9399 49.1012 9.2197031e-39
3354.0601 -2628.4099 45.841301 9.2197031e-39
3353.05 -2595.5698 45.895 9.2197031e-39
3339.25 -2583.77 42.314098 9.2197031e-39
3343.4299 -2529.23 43.9725 9.2197031e-39
3334.26 -2470.9399 42.0919 9.2197031e-39
3330.6399 -2444.1299 41.386002 9.2197031e-39
3347.3201 -2410.0801 46.188801 9.2197031e-39
3324.3501 -2404.0701 40.097801 9.2197031e-39
3336.6748 -2402.7051 43.411701 9.2197031e-39
3342.9951 -2403.1599 45.099777 9.2197031e-39
3326.645 -2393.6851 40.814301 9.2197031e-39
3330.8501 -2394.5898 41.932301 9.2197031e-39
3351.1299 -2399.95 47.307999 9.2197031e-39
3324.9231 -2386.9333 40.420334 9.2197031e-39
3341.8901 -2385.4551 44.977898 9.2197031e-39
3338.8999 -2372.6899 44.3027 9.2197031e-39
3318.8367 -2112.9934 41.492767 9.2197031e-39
3321.95 -2111.7 42.34 9.2197031e-39
3318.21 -2106.1948 41.392052 9.2197031e-39
3326.3035 -2104.2634 43.578136 9.2197031e-39
3332.4399 -2093.9248 45.3228 9.2197031e-39
3321.3799 -2075.76 42.5411 9.2197031e-39
3324.0801 -2051.8701 43.500099 9.2197031e-39
3326.71 -2025.96 44.459999 9.2197031e-39
3330.9399 -1987.16 45.9748 9.2197031e-39
3334.3701 -1949.26 47.266602 9.2197031e-39
3333.7 -1925.905 47.316799 9.2197031e-39
3337.26 -1863.85 48.883999 9.2197031e-39
3337.1201 -1836.63 49.114498 9.2197031e-39
3332.8401 -1655.3831 49.7561 9.2197031e-39
3297.1299 -845.66498 48.180302 9.2197031e-39
3173.01 1860.78 41.635201 9.2197031e-39
3428.0801 -3827.3601 53.835602 9.2197031e-39
3348.3501 -2046.7 50.0476 9.2197031e-39
3357.8 -2021.49 52.828098 9.2197031e-39
3363.55 -2009.75 54.4827 9.2197031e-39
3341.73 -1760.6899 51.097698 9.2197031e-39
3341.25 -1723.4299 51.335201 9.2197031e-39
3339.6001 -1692.115 51.203098 9.2197031e-39
3336.54 -1671.748 50.583698 9.2197031e-39
3331.71 -1595.1489 50.0457 9.2197031e-39
3345.1499 -1256.4131 56.985401 9.2197031e-39
3320.1899 -872.06598 54.093899 9.2197031e-39
3332.46 -850.43896 57.5923 9.2197031e-39
3309.0801 -836.81897 51.465099 9.2197031e-39
3207.7 1858.5801 50.903702 9.2197031e-39
3386.1899 -1945.9399 61.175999 9.2197031e-39
3400.5701 -1910.89 65.3722 9.2197031e-39
3362.6499 -711.68079 67.045898 9.2197031e-39
3350.21 -698.05829 63.848099 9.2197031e-39
3242.4299 1849.0801 60.109901 9.2197031e-39
3276.9299 1861.26 69.467499 9.2197031e-39
3420.3501 -1861.9399 71.149101 9.2197031e-39
3439.97 -1816.15 76.854797 9.2197031e-39
3459.03 -1774.4399 82.370499 9.2197031e-39
3472.6299 -1749.85 86.253899 9.2197031e-39
3486.3 -1726.41 90.1465 9.2197031e-39
3497.8701 -1709.6699 93.409599 9.2197031e-39
3514.1399 -1682.0139 98.038597 9.2197031e-39
3543.6299 -1623.308 106.513 9.2197031e-39
3584.4399 -1540.333 118.261 9.2197031e-39
3637.21 -1433.386 133.444 9.2197031e-39
3653.6101 -1414.73 138.021 9.2197031e-39
3735.8 -2815.3201 146.214 9.2197031e-39
3670.3601 -1396.311 142.686 9.2197031e-39
3680.8301 -1392.579 145.528 9.2197031e-39
3696.02 -1379.083 149.729 9.2197031e-39
3781.72 -2885.02 157.823 9.2197031e-39
3788.6699 -2871.4299 159.81799 9.2197031e-39
3783.4399 -2803.1001 159.092 9.2197031e-39
3770.97 -2798.6201 155.79601 9.2197031e-39
3712.8 -1382.1389 154.19099 9.2197031e-39
3730.95 -1382.8879 159.04401 9.2197031e-39
3705.9099 -1377.4351 152.392 9.2197031e-39
3723.6399 -1378.915 157.125 9.2197031e-39
3827.98 -3117.53 167.916 9.2197031e-39
3824.1799 -3095.05 167.12 9.2197031e-39
3816.8201 -3067.71 165.42101 9.2197031e-39
3824.25 -3063.76 167.448 9.2197031e-39
3809.9099 -2822.75 165.985 9.2197031e-39
3741.4399 -1380.7729 161.87399 9.2197031e-39
3752.9299 -1377.032 164.987 9.2197031e-39
3763.1001 -1376.046 167.72 9.2197031e-39
3771.3999 -1378.6431 169.91701 9.2197031e-39
3871.72 -3088.1101 179.918 9.2197031e-39
3851.8201 -3074.48 174.72501 9.2197031e-39
3838.24 -3069.6299 171.138 9.2197031e-39
3837.53 -2920.51 172.41701 9.2197031e-39
3862.6699 -2915.21 179.202 9.2197031e-39
3782.1299 -1377.0139 172.806 9.2197031e-39
3790.45 -1379.8 175.007 9.2197031e-39
3800.77 -1379.259 177.77499 9.2197031e-39
3910.01 -3111.24 189.944 9.2197031e-39
3882.1899 -3087.6899 182.72701 9.2197031e-39
3813.6899 -1374.5959 181.27901 9.2197031e-39
3825.6799 -1371.79 184.52 9.2197031e-39
3832.53 -1377.5239 186.298 9.2197031e-39
3952.3999 -3813.3799 194.369 9.2197031e-39
3912.1299 -2923.8799 192.36099 9.2197031e-39
3857.3601 -1371.745 193.002 9.2197031e-39
3850.47 -1365.796 191.216 9.2197031e-39
3870.72 -1367.8569 196.619 9.2197031e-39
3882.54 -1366.603 199.79601 9.2197031e-39
4000.78 -3888.6399 206.58099 9.2197031e-39
3958.52 -3349.52 200.58501 9.2197031e-39
3956.95 -3159.8999 202.034 9.2197031e-39
3969.1101 -3067.54 206.19901 9.2197031e-39
3901.8501 -1371.0129 204.923 9.2197031e-39
3896.1001 -1363.053 203.461 9.2197031e-39
3917.24 -1365.3369 209.099 9.2197031e-39
4006.8401 -3193.4299 215.06 9.2197031e-39
3928.72 -1365.467 212.172 9.2197031e-39
3940.25 -1365.7371 215.255 9.2197031e-39
3952.4099 -1365.36 218.515 9.2197031e-39
4033.6899 -3246.6299 221.72701 9.2197031e-39
4042.3501 -3051.23 225.972 9.2197031e-39
3965.22 -1364.353 221.957 9.2197031e-39
3976.8999 -1365.067 225.076 9.2197031e-39
3989.8301 -1364.38 228.547 9.2197031e-39
4085.73 -3755.8799 230.63901 9.2197031e-39
4090.3899 -3733.8 232.105 9.2197031e-39
4084.7 -3693.48 230.97701 9.2197031e-39
4101.6899 -3694.9399 235.51401 9.2197031e-39
4094.6201 -3653.99 234.024 9.2197031e-39
4097.4302 -3631.27 234.99899 9.2197031e-39
4096.3599 -3602.6499 234.996 9.2197031e-39
4003.45 -1363.094 232.20599 9.2197031e-39
4022.1499 -1355.901 237.283 9.2197031e-39
4101.9199 -3210.73 240.35001 9.2197031e-39
4040.3899 -1349.735 242.228 9.2197031e-39
4058.1499 -1344.582 247.034 9.2197031e-39
4166.7598 -3152.02 258.29001 9.2197031e-39
4141.46 -3141.3501 251.621 9.2197031e-39
4168.7998 -3138.48 258.97101 9.2197031e-39
4162.3198 -3116.6399 257.45001 9.2197031e-39
4163.27 -3102.55 257.84299 9.2197031e-39
4159.5601 -3041.4099 257.453 9.2197031e-39
4153.04 -3021.74 255.90199 9.2197031e-39
4094.5601 -1350.4089 256.72601 9.2197031e-39
4072.1899 -1344.1431 250.798 9.2197031e-39
4083.6899 -1346.8401 253.85201 9.2197031e-39
4220.8198 -4048.9399 263.922 9.2197031e-39
4176.0898 -3100.1001 261.30099 9.2197031e-39
4177.5098 -3086.6699 261.814 9.2197031e-39
4184.5298 -3078.6399 263.77301 9.2197031e-39
4168.3501 -3021.72 260.00201 9.2197031e-39
4168.1499 -3007.99 260.08301 9.2197031e-39
4182.7202 -3007.03 263.996 9.2197031e-39
4185.3101 -2995.8101 264.79901 9.2197031e-39
4189.29 -2985.8401 265.96301 9.2197031e-39
4117.3501 -1341.041 262.92099 9.2197031e-39
4213.0098 -2991.8501 272.255 9.2197031e-39
4165.8701 -1398.592 275.34698 9.2197031e-39
4181.54 -1398.446 279.543 9.2197031e-39
4160.0601 -1389.312 273.88199 9.2197031e-39
4156.2402 -1377.988 272.97 9.2197031e-39
4162.5898 -1356.146 274.88599 9.2197031e-39
4157.75 -1345.444 273.69501 9.2197031e-39
4159.54 -1327.625 274.35001 9.2197031e-39
4157.0801 -1314.0239 273.82599 9.2197031e-39
4313.77 -4725.6699 282.13501 9.2197031e-39
4278.3799 -3030.3301 289.38101 9.2197031e-39
4193.6899 -1401.8669 282.763 9.2197031e-39
4210.9102 -1400.801 287.383 9.2197031e-39
4252.3501 -1423.217 298.26099 9.2197031e-39
4247.5601 -1412.603 297.082 9.2197031e-39
4227.48 -1400.64 291.823 9.2197031e-39
4241.9302 -1402.6631 295.672 9.2197031e-39
4386.1001 -4719.98 301.55899 9.2197031e-39
4410.98 -4719.0898 308.23099 9.2197031e-39
4269.77 -1423.146 302.92499 9.2197031e-39
4289.52 -1421.458 308.23099 9.2197031e-39
4435.9399 -4717.9502 314.92401 9.2197031e-39
4366.1201 -3084.51 312.33899 9.2197031e-39
4377.7798 -3078.3401 315.52301 9.2197031e-39
4378.4502 -3063.8 315.84601 9.2197031e-39
4364.7798 -3038.8701 312.42899 9.2197031e-39
4361.0698 -3021.7 311.60699 9.2197031e-39
4357.96 -3005.22 310.936 9.2197031e-39
4368.29 -2998.3501 313.771 9.2197031e-39
4377.79 -2990.8 316.38699 9.2197031e-39
4381.5498 -2979.3201 317.509 9.2197031e-39
4387.6499 -2969.45 319.23999 9.2197031e-39
4323.98 -1423.235 317.44101 9.2197031e-39
4310.8999 -1418.834 313.98001 9.2197031e-39
4489.5098 -4722.02 329.228 9.2197031e-39
4461.8101 -4718.3398 321.84799 9.2197031e-39
4408.4502 -2969.04 324.81201 9.2197031e-39
4351.71 -1431.3679 324.78601 9.2197031e-39
4337.8398 -1427.208 321.11301 9.2197031e-39
4518.6802 -4728.0703 336.98001 9.2197031e-39
4393.3799 -1444.981 335.80801 9.2197031e-39
4371.8301 -1431.01 330.17599 9.2197031e-39
4386.54 -1435.0239 334.07599 9.2197031e-39
4544 -4725.79 343.784 9.2197031e-39
4416.8101 -1443.095 342.10001 9.2197031e-39
4437.9502 -1443.251 347.76099 9.2197031e-39
4529.1699 -3031.47 356.522 9.2197031e-39
4451.9502 -1448.7 351.45499 9.2197031e-39
4481.2998 -1443.984 359.36099 9.2197031e-39
4503.5 -1444.578 365.29999 9.2197031e-39
4533.1499 -1440.739 373.27499 9.2197031e-39
4555.5498 -1442.083 379.26001 9.2197031e-39
4586.2798 -1438.616 387.52399 9.2197031e-39
4677.5698 -3108.23 395.5 9.2197031e-39
4623.3901 -1659.797 395.27802 9.2197031e-39
4617.1699 -1435.6431 395.82501 9.2197031e-39
4667.8901 -1625.396 407.534 9.2197031e-39
4671.3701 -1608.8821 408.63 9.2197031e-39
4647.3799 -1433.6689 403.93201 9.2197031e-39
4676.8701 -1432.673 411.84 9.2197031e-39
4743.73 -1683.109 427.272 9.2197031e-39
4723.8301 -1569.0029 423.07001 9.2197031e-39
4722.52 -1422.927 424.15799 9.2197031e-39
4784.5298 -1404.869 440.94101 9.2197031e-39
4921.2202 -1680.718 474.823 9.2197031e-39
4907.3999 -1354.5 474.34 9.2197031e-39
4961.77 -1683.416 485.65302 9.2197031e-39
5006.0698 -1685.598 497.49399 9.2197031e-39
5075.3799 -1680.629 516.10199 9.2197031e-39
5115.3599 -1703.89 526.578 9.2197031e-39
5093.0898 -1692.8091 520.72302 9.2197031e-39
5155.2598 -1710.23 537.198 9.2197031e-39
5185.6802 -1308.656 549.30603 9.2197031e-39
5176.79 -1291.9819 547.08899 9.2197031e-39
5177.25 -1270.4819 547.42401 9.2197031e-39
5176.6299 -1249.355 547.46698 9.2197031e-39
5167.25 -1232.787 545.11798 9.2197031e-39
5190.9502 -1327.11 550.53302 9.2197031e-39
5432.4302 -1692.6069 611.59003 9.2197031e-39
5499.5898 -1738.53 629.12 9.2197031e-39
5470.71 -1724.4399 621.526 9.2197031e-39
5481.1802 -1701 624.56201 9.2197031e-39
5585.3301 -3643.1899 633.29303 9.2197031e-39
5598.6299 -3623.4299 637.04999 9.2197031e-39
5516.5898 -1797.66 633.08899 9.2197031e-39
5637.04 -3618.29 647.38599 9.2197031e-39
5587.3901 -1761.75 652.40198 9.2197031e-39
5698.3901 -3625.6299 663.74103 9.2197031e-39
5700.5098 -3598.6001 664.57397 9.2197031e-39
5704.0601 -3572.5901 665.78302 9.2197031e-39
5700.5 -3542.9099 665.12 9.2197031e-39
5706.1001 -3518.3899 666.862 9.2197031e-39
5696.75 -3486.3 664.67603 9.2197031e-39
5665.2998 -1722.86 673.64801 9.2197031e-39
5760.0898 -3491.24 681.58801 9.2197031e-39
5770.4102 -2066.26 698.40503 9.2197031e-39
5810.98 -2131.8701 708.62097 9.2197031e-39
5790.5601 -2110.1602 703.36798 9.2197031e-39
5780.5801 -2088.1201 700.91101 9.2197031e-39
5781.25 -2042.8199 701.53802 9.2197031e-39
5849.9102 -2199.55 718.37701 9.2197031e-39
5826.1699 -2177.0698 712.24402 9.2197031e-39
5818.6699 -2154.4102 710.45801 9.2197031e-39
5895.8101 -2269.3301 729.98102 9.2197031e-39
5874.5898 -2245.8 724.53003 9.2197031e-39
5864.7598 -2222.54 722.12701 9.2197031e-39
5933.79 -2317.4302 739.677 9.2197031e-39
5912.9702 -2293.1699 734.341 9.2197031e-39
5967.9199 -2342.54 748.56702 9.2197031e-39
6006.5498 -2393.0801 758.41302 9.2197031e-39
5984.4502 -2367.51 752.74701 9.2197031e-39
7053.1602 -4100.4199 1021.82 9.2197031e-39
6981.0098 -1639.5181 1026.77 9.2197031e-39
6958.52 -1609.1641 1021.05 9.2197031e-39
6963.3799 -1574.114 1022.7 9.2197031e-39
7243.9102 -4150.7998 1072.4 9.2197031e-39
7235.0601 -4103.4502 1070.5 9.2197031e-39
7245.1699 -4065.3401 1073.58 9.2197031e-39
7245.1699 -4022.8101 1074 9.2197031e-39
7243.8701 -3980.03 1074.08 9.2197031e-39
7242.1602 -3937.4099 1074.04 9.2197031e-39
7240.02 -3894.9399 1073.88 9.2197031e-39
7247.3701 -3856.6699 1076.23 9.2197031e-39
7244.4399 -3814.45 1075.86 9.2197031e-39
7249.2598 -3775.5601 1077.54 9.2197031e-39
7245.5498 -3733.6201 1076.95 9.2197031e-39
7254.1899 -3696.53 1079.63 9.2197031e-39
7144.5898 -1648.2571 1070.49 9.2197031e-39
7260.6802 -3658.74 1081.74 9.2197031e-39
7255.8301 -3617.1499 1080.86 9.2197031e-39
7261.6201 -3579.4399 1082.78 9.2197031e-39
7263.3799 -3540.54 1083.63 9.2197031e-39
7259.25 -3499.96 1082.9301 9.2197031e-39
7318.6099 -1879.83 1114.8 9.2197031e-39
7317.1899 -1843.24 1114.78 9.2197031e-39
7310.6499 -1807.1801 1113.39 9.2197031e-39
7312.46 -1770.1801 1114.23 9.2197031e-39
7318.73 -1732.5 1116.29 9.2197031e-39
7315.1001 -1695.9829 1115.6801 9.2197031e-39
7317.8599 -1658.51 1116.78 9.2197031e-39
7307.7402 -1473.458 1115.9 9.2197031e-39
7491.1299 -3531.8 1144.71 9.2197031e-39
7622.5298 -3529.5801 1179.91 9.2197031e-39
7762.5801 -3527.47 1217.4301 9.2197031e-39
7873.9502 -3514.9299 1247.38 9.2197031e-39
7863.77 -3468 1245.11 9.2197031e-39
7865.3398 -3424.49 1245.96 9.2197031e-39
7909.3301 -2620.6899 1265.67 9.2197031e-39
7917.9702 -2579.3701 1268.39 9.2197031e-39
8141.0098 -3449.02 1319.54 9.2197031e-39
8435.2998 -3472.9199 1398.1 9.2197031e-39
