# .PCD v0.7 - Point Cloud Data file format
VERSION 0.7
FIELDS x y z rgb
SIZE 4 4 4 4
TYPE F F F F
COUNT 1 1 1 1
WIDTH 317
HEIGHT 1
VIEWPOINT 0 0 0 1 0 0 0
POINTS 317
DATA ascii
3346.23 -3783.51 32.352402 9.2197031e-39
3359.27 -3784.98 35.8283 9.2197031e-39
3372.1201 -3782.3301 39.294998 9.2197031e-39
3304.01 -2396.8501 34.722401 9.2197031e-39
3310.1499 -2395.0898 36.3834 9.2197031e-39
3307.0901 -2381.3799 35.701302 9.2197031e-39
3323.27 -2385.3101 39.993599 9.2197031e-39
3303.885 -2373.22 34.922203 9.2197031e-39
3303.1499 -2366.77 34.7892 9.2197031e-39
3138.3799 1859.6599 32.352402 9.2197031e-39
3412.8701 -3804.5901 49.986599 9.2197031e-39
3385.79 -3793.53 42.847 9.2197031e-39
3399.24 -3798.6299 46.398102 9.2197031e-39
3370.6001 -2766.01 48.911999 9.2197031e-39
3352.8701 -2631.1602 45.493801 9.2197031e-39
3352.6799 -2610.8901 45.644001 9.2197031e-39
3351.4399 -2586.72 45.550598 9.2197031e-39
3337.9299 -2574.8701 42.0504 9.2197031e-39
3343.4299 -2529.23 43.9725 9.2197031e-39
3334.46 -2471.9199 42.134701 9.2197031e-39
3330.8401 -2445.1099 41.430901 9.2197031e-39
3347.6499 -2411.02 46.268799 9.2197031e-39
3324.46 -2404.5552 40.122501 9.2197031e-39
3337.0425 -2403.895 43.498173 9.2197031e-39
3343.6433 -2403.9834 45.264832 9.2197031e-39
3326.5049 -2395.8052 40.75705 9.2197031e-39
3330.895 -2397.1851 41.917702 9.2197031e-39
3342.9951 -2397.835 45.151402 9.2197031e-39
3324.9199 -2386.9399 40.419102 9.2197031e-39
3341.4099 -2382.4302 44.8797 9.2197031e-39
3339.99 -2375.47 44.568298 9.2197031e-39
3317.9333 -2111.76 41.261768 9.2197031e-39
3321.8599 -2112.1951 42.309402 9.2197031e-39
3317.75 -2108.6499 41.243599 9.2197031e-39
3325.5601 -2104.9302 43.371399 9.2197031e-39
3327.45 -2099.75 43.930099 9.2197031e-39
3332.165 -2094.885 45.239647 9.2197031e-39
3319.75 -2084.5898 42.0172 9.2197031e-39
3324.0801 -2051.8701 43.500099 9.2197031e-39
3326.8799 -2024.97 44.513802 9.2197031e-39
3331.1001 -1986.17 46.026402 9.2197031e-39
3334.52 -1948.27 47.316002 9.2197031e-39
3333.9048 -1924.4199 47.386501 9.2197031e-39
3337.26 -1863.85 48.883999 9.2197031e-39
3338.96 -1820.75 49.762299 9.2197031e-39
3332.9199 -1654.386 49.7854 9.2197031e-39
3297.0901 -854.664 48.078701 9.2197031e-39
3173.01 1860.78 41.635201 9.2197031e-39
3427.99 -3826.3601 53.821999 9.2197031e-39
3352.26 -2033.3101 51.227299 9.2197031e-39
3358.0901 -2020.53 52.914501 9.2197031e-39
3366.5 -2000.24 55.367901 9.2197031e-39
3340.6699 -1770.63 50.715199 9.2197031e-39
3341.4399 -1721.4399 51.407299 9.2197031e-39
3339.8701 -1689.129 51.304401 9.2197031e-39
3336.6201 -1670.752 50.6152 9.2197031e-39
3331.96 -1591.158 50.1539 9.2197031e-39
3346.3799 -1234.4551 57.5312 9.2197031e-39
3320.21 -871.06702 54.109699 9.2197031e-39
3332.1799 -859.43298 57.429798 9.2197031e-39
3308.95 -845.81702 51.343201 9.2197031e-39
3207.7 1858.5801 50.903702 9.2197031e-39
3383.77 -1953.52 60.450901 9.2197031e-39
3400.8899 -1909.9399 65.464996 9.2197031e-39
3362.7 -710.68219 67.068497 9.2197031e-39
3349.8201 -708.04858 63.645 9.2197031e-39
3242.4099 1851.0801 60.123501 9.2197031e-39
3276.9299 1861.26 69.467499 9.2197031e-39
3423.54 -1852.52 72.097603 9.2197031e-39
3438.3301 -1820.85 76.370102 9.2197031e-39
3456.3501 -1781.9399 81.578102 9.2197031e-39
3468.8501 -1760.13 85.141502 9.2197031e-39
3483.8401 -1732.9301 89.424103 9.2197031e-39
3495.3601 -1716.1599 92.672699 9.2197031e-39
3515.24 -1679.241 98.360603 9.2197031e-39
3535.01 -1644.485 103.997 9.2197031e-39
3574.5 -1564.182 115.364 9.2197031e-39
3627.45 -1456.23 130.608 9.2197031e-39
3657.1899 -1406.5391 139.06 9.2197031e-39
3728.47 -2806 144.345 9.2197031e-39
3671.1699 -1394.498 142.92101 9.2197031e-39
3685.3701 -1382.6479 146.842 9.2197031e-39
3693.5 -1384.4771 149 9.2197031e-39
3773.8701 -2874.8501 155.821 9.2197031e-39
3783.1201 -2864.49 158.39999 9.2197031e-39
3776.8 -2805.3 157.293 9.2197031e-39
3783.4399 -2803.1001 159.092 9.2197031e-39
3701.6299 -1386.387 151.157 9.2197031e-39
3713.24 -1381.2471 154.317 9.2197031e-39
3730.95 -1382.8879 159.04401 9.2197031e-39
3724.0801 -1378.0281 157.252 9.2197031e-39
3827.98 -3117.53 167.916 9.2197031e-39
3821.53 -3090.8601 166.45399 9.2197031e-39
3815.75 -3066.04 165.151 9.2197031e-39
3824.79 -3064.5901 167.58501 9.2197031e-39
3801.3101 -2813.25 163.778 9.2197031e-39
3770.4399 -1380.376 169.64301 9.2197031e-39
3742.3601 -1379.015 162.13699 9.2197031e-39
3753.3999 -1376.158 165.121 9.2197031e-39
3763.5701 -1375.176 167.855 9.2197031e-39
3849.24 -3086.1001 173.91901 9.2197031e-39
3859.6101 -3085.9399 176.698 9.2197031e-39
3870.5901 -3086.48 179.633 9.2197031e-39
3838.1499 -2921.27 172.576 9.2197031e-39
3852.3899 -2903.23 176.567 9.2197031e-39
3779.21 -1382.1851 171.972 9.2197031e-39
3789.46 -1381.515 174.72501 9.2197031e-39
3801.27 -1378.406 177.918 9.2197031e-39
3907.1201 -3107.23 189.211 9.2197031e-39
3881.05 -3086.0701 182.437 9.2197031e-39
3813.6899 -1374.5959 181.27901 9.2197031e-39
3821.04 -1379.3831 183.2 9.2197031e-39
3839.3401 -1366.6169 188.22701 9.2197031e-39
3956.28 -3822.54 195.317 9.2197031e-39
3926.1399 -2939.1001 195.96201 9.2197031e-39
3847.29 -1370.801 190.314 9.2197031e-39
3858.4299 -1370.0859 193.306 9.2197031e-39
3871.27 -1367.032 196.772 9.2197031e-39
4001.1699 -3889.5601 206.67799 9.2197031e-39
3968.8101 -3366.47 203.173 9.2197031e-39
3956.95 -3159.8999 202.034 9.2197031e-39
3976.98 -3154.05 207.45399 9.2197031e-39
3971.6299 -3070.5801 206.84399 9.2197031e-39
3883.6399 -1364.964 200.10699 9.2197031e-39
3891.6299 -1369.569 202.201 9.2197031e-39
3908.0701 -1362.11 206.67599 9.2197031e-39
3916.6699 -1366.141 208.938 9.2197031e-39
3929.3 -1364.668 212.33501 9.2197031e-39
3940.8301 -1364.943 215.42 9.2197031e-39
3954.78 -1362.207 219.181 9.2197031e-39
4080.6299 -3746.22 229.369 9.2197031e-39
4033.6899 -3246.6299 221.72701 9.2197031e-39
4045.04 -3054.1101 226.664 9.2197031e-39
3965.8201 -1363.5701 222.125 9.2197031e-39
3977.5 -1364.2891 225.246 9.2197031e-39
3990.45 -1363.6079 228.718 9.2197031e-39
4086.1499 -3725.9299 231.047 9.2197031e-39
4087.0901 -3697.8301 231.57401 9.2197031e-39
4100.7202 -3693.2 235.271 9.2197031e-39
4091.6599 -3648.8201 233.283 9.2197031e-39
4102.9302 -3640.7 236.379 9.2197031e-39
4096.8701 -3603.5 235.123 9.2197031e-39
4003.45 -1363.094 232.20599 9.2197031e-39
4022.77 -1355.141 237.45799 9.2197031e-39
4107.6401 -3217.51 241.81599 9.2197031e-39
4052.4099 -1351.3259 245.431 9.2197031e-39
4041.02 -1348.98 242.40401 9.2197031e-39
4192.0801 -3993.3401 256.77399 9.2197031e-39
4167.4399 -3152.72 258.46701 9.2197031e-39
4143.5 -3143.49 252.146 9.2197031e-39
4171.5601 -3141.28 259.68399 9.2197031e-39
4156.04 -3110.3899 255.832 9.2197031e-39
4163.9702 -3103.24 258.02499 9.2197031e-39
4161.73 -3043.3999 258.017 9.2197031e-39
4151.5801 -3020.4299 255.52299 9.2197031e-39
4165.3999 -3019.1201 259.23901 9.2197031e-39
4072.1899 -1344.1431 250.798 9.2197031e-39
4085.6399 -1344.627 254.397 9.2197031e-39
4095.21 -1349.677 256.909 9.2197031e-39
4171.1299 -3095.3301 260.01999 9.2197031e-39
4178.9399 -3088.03 262.18301 9.2197031e-39
4188.1299 -3081.98 264.703 9.2197031e-39
4174.0801 -3013.1201 261.62201 9.2197031e-39
4176 -3001.3101 262.25101 9.2197031e-39
4186.8101 -2997.0601 265.189 9.2197031e-39
4192.3198 -2988.3301 266.75 9.2197031e-39
4203.8501 -2984.47 269.87601 9.2197031e-39
4119.3398 -1338.863 263.47501 9.2197031e-39
4161.6499 -1402.686 274.17499 9.2197031e-39
4160.0601 -1389.312 273.88199 9.2197031e-39
4156.9302 -1377.292 273.16199 9.2197031e-39
4155.7202 -1363.1599 272.978 9.2197031e-39
4158.4302 -1344.7371 273.884 9.2197031e-39
4149.7202 -1321.9409 271.77802 9.2197031e-39
4160.21 -1326.912 274.53799 9.2197031e-39
4313.77 -4725.6699 282.13501 9.2197031e-39
4193.6899 -1401.8669 282.763 9.2197031e-39
4211.6299 -1400.1379 287.58301 9.2197031e-39
4183.6699 -1396.418 280.133 9.2197031e-39
4284.5298 -3035.1899 290.978 9.2197031e-39
4255.3301 -1420.6699 299.082 9.2197031e-39
4243.3901 -1401.364 296.077 9.2197031e-39
4254.2002 -1406.814 298.918 9.2197031e-39
4234.75 -1394.074 293.83499 9.2197031e-39
4389.73 -4728.1699 302.45001 9.2197031e-39
4411.3999 -4720 308.332 9.2197031e-39
4271.27 -1421.886 303.33899 9.2197031e-39
4290.2798 -1420.835 308.439 9.2197031e-39
4440.1299 -4726.9697 315.95599 9.2197031e-39
4366.1201 -3084.51 312.33899 9.2197031e-39
4376.23 -3077.1499 315.11801 9.2197031e-39
4380.7998 -3065.5601 316.45801 9.2197031e-39
4365.5601 -3039.45 312.634 9.2197031e-39
4359.4902 -3020.55 311.19299 9.2197031e-39
4357.1602 -3004.6499 310.728 9.2197031e-39
4369.8999 -2999.46 314.19 9.2197031e-39
4377.79 -2990.8 316.38699 9.2197031e-39
4383.1802 -2980.4099 317.93301 9.2197031e-39
4324.75 -1422.626 317.65201 9.2197031e-39
4311.6602 -1418.217 314.19 9.2197031e-39
4490.3799 -4723.8101 329.44299 9.2197031e-39
4461.3799 -4717.4399 321.74301 9.2197031e-39
4390.9199 -2971.5901 320.09299 9.2197031e-39
4404.3398 -2966.3999 323.73901 9.2197031e-39
4352.4902 -1430.7729 324.99899 9.2197031e-39
4338.6099 -1426.605 321.32501 9.2197031e-39
4515.1499 -4720.9399 336.10501 9.2197031e-39
4394.96 -1443.833 336.242 9.2197031e-39
4387.3301 -1434.442 334.29199 9.2197031e-39
4373.3901 -1429.834 330.60599 9.2197031e-39
4544.4502 -4726.6797 343.89499 9.2197031e-39
4417.6001 -1442.5281 342.31799 9.2197031e-39
4431.5601 -1447.728 346.005 9.2197031e-39
4530.8198 -3032.52 356.95401 9.2197031e-39
4452.75 -1448.1479 351.67599 9.2197031e-39
4474.8301 -1448.345 357.586 9.2197031e-39
4504.3198 -1444.04 365.52301 9.2197031e-39
4533.96 -1440.209 373.49899 9.2197031e-39
4556.3701 -1441.5601 379.48499 9.2197031e-39
4587.1099 -1438.1 387.75 9.2197031e-39
4672.5898 -3105.1499 394.198 9.2197031e-39
4606.9302 -1681.0801 390.66199 9.2197031e-39
4624.27 -1659.406 395.51999 9.2197031e-39
4618 -1435.135 396.052 9.2197031e-39
4659.9302 -1628.99 405.367 9.2197031e-39
4672.25 -1608.475 408.87 9.2197031e-39
4648.21 -1433.1689 404.16 9.2197031e-39
4678.5498 -1431.687 412.29901 9.2197031e-39
4733.4902 -1564.4351 425.70099 9.2197031e-39
4715.77 -1426.8101 422.31299 9.2197031e-39
4758.1899 -1677.496 431.19901 9.2197031e-39
4785.3701 -1404.3921 441.172 9.2197031e-39
4908.2598 -1354.03 474.57199 9.2197031e-39
4962.6899 -1683.106 485.90201 9.2197031e-39
5020.7998 -1680.777 501.48499 9.2197031e-39
5068 -1682.9719 514.10199 9.2197031e-39
5107.9399 -1706.1 524.56897 9.2197031e-39
5094.0098 -1692.525 520.974 9.2197031e-39
5156.1899 -1709.96 537.45001 9.2197031e-39
5180.46 -1311.2419 547.88202 9.2197031e-39
5176.79 -1291.9819 547.08899 9.2197031e-39
5178.1099 -1270.0349 547.65997 9.2197031e-39
5178.3501 -1248.446 547.93597 9.2197031e-39
5168.1001 -1232.324 545.35199 9.2197031e-39
5190.0698 -1327.533 550.29498 9.2197031e-39
5395.8999 -1702.0701 601.716 9.2197031e-39
5501.4702 -1738.09 629.62903 9.2197031e-39
5471.6499 -1724.21 621.78003 9.2197031e-39
5479.3101 -1701.46 624.05499 9.2197031e-39
5586.9902 -3644.2 633.729 9.2197031e-39
5602.8198 -3625.9199 638.14697 9.2197031e-39
5516.5898 -1797.66 633.08899 9.2197031e-39
5641.25 -3620.75 648.48901 9.2197031e-39
5589.2798 -1761.35 652.91199 9.2197031e-39
5699.2402 -3626.1101 663.96301 9.2197031e-39
5701.3599 -3599.0801 664.797 9.2197031e-39
5704.9199 -3573.05 666.00702 9.2197031e-39
5709.9399 -3547.99 667.59802 9.2197031e-39
5707.8198 -3519.3 667.315 9.2197031e-39
5698.48 -3487.1899 665.13098 9.2197031e-39
5754 -3488.1699 679.98798 9.2197031e-39
5661.5298 -1723.6899 672.62799 9.2197031e-39
5768.48 -2066.3999 697.888 9.2197031e-39
5809.98 -2154.73 708.12903 9.2197031e-39
5803.2598 -2132.23 706.54999 9.2197031e-39
5790.5601 -2110.1602 703.36798 9.2197031e-39
5779.6099 -2088.1802 700.65302 9.2197031e-39
5779.3198 -2042.98 701.021 9.2197031e-39
5842.1802 -2199.7 716.30701 9.2197031e-39
5834.8599 -2176.8301 714.573 9.2197031e-39
5895.8101 -2269.3301 729.98102 9.2197031e-39
5875.5498 -2245.8 724.789 9.2197031e-39
5858.96 -2222.6001 720.57501 9.2197031e-39
5912.9702 -2293.1699 734.341 9.2197031e-39
5960.2002 -2342.27 746.50201 9.2197031e-39
5936.6899 -2317.51 740.45203 9.2197031e-39
6009.4502 -2393.24 759.18701 9.2197031e-39
5985.4199 -2367.55 753.005 9.2197031e-39
7054.9102 -4101.2803 1022.28 9.2197031e-39
6981.96 -1639.3611 1027.03 9.2197031e-39
6960.4199 -1608.832 1021.56 9.2197031e-39
6957.6699 -1575.1589 1021.16 9.2197031e-39
7128.3599 -1650.781 1066.12 9.2197031e-39
7243.0298 -4150.3701 1072.17 9.2197031e-39
7239.4702 -4105.52 1071.66 9.2197031e-39
7246.0498 -4065.75 1073.8101 9.2197031e-39
7246.9502 -4023.6101 1074.47 9.2197031e-39
7245.6602 -3980.8101 1074.55 9.2197031e-39
7243.9399 -3938.1699 1074.51 9.2197031e-39
7242.71 -3896.0701 1074.59 9.2197031e-39
7248.27 -3857.04 1076.47 9.2197031e-39
7245.3501 -3814.8101 1076.1 9.2197031e-39
7251.0698 -3776.26 1078.01 9.2197031e-39
7248.27 -3734.6399 1077.67 9.2197031e-39
7255.1001 -3696.8601 1079.87 9.2197031e-39
7252.4502 -3655.8201 1079.5699 9.2197031e-39
7257.6602 -3617.78 1081.34 9.2197031e-39
7263.4502 -3580.0601 1083.26 9.2197031e-39
7266.1499 -3541.4399 1084.37 9.2197031e-39
7260.1699 -3500.25 1083.17 9.2197031e-39
7330.1499 -1878.77 1117.9 9.2197031e-39
7322.9502 -1842.67 1116.33 9.2197031e-39
7302.9702 -1808.02 1111.3199 9.2197031e-39
7316.29 -1769.73 1115.27 9.2197031e-39
7312.98 -1733.24 1114.74 9.2197031e-39
7317.02 -1695.7209 1116.1899 9.2197031e-39
7320.73 -1658.0901 1117.5601 9.2197031e-39
7308.6899 -1473.275 1116.15 9.2197031e-39
7484.6499 -3529.8201 1142.99 9.2197031e-39
7623.46 -3529.8501 1180.16 9.2197031e-39
7764.4399 -3528.01 1217.9301 9.2197031e-39
7866.48 -3512.8601 1245.4 9.2197031e-39
7878.7402 -3472 1249.08 9.2197031e-39
7858.77 -3422.8 1244.22 9.2197031e-39
7915.0801 -2579.1602 1267.62 9.2197031e-39
8128.79 -3445.99 1316.29 9.2197031e-39
8460.7305 -3478.97 1404.85 9.2197031e-39
