# .PCD v0.7 - Point Cloud Data file format
VERSION 0.7
FIELDS x y z rgb
SIZE 4 4 4 4
TYPE F F F F
COUNT 1 1 1 1
WIDTH 314
HEIGHT 1
VIEWPOINT 0 0 0 1 0 0 0
POINTS 314
DATA ascii
3359.1299 -3781.98 35.821602 9.2197031e-39
3372.3799 -3787.3201 39.3176 9.2197031e-39
3345.75 -3770.52 32.352402 9.2197031e-39
3303.4399 -2390.8799 34.627602 9.2197031e-39
3307 -2384.915 35.640549 9.2197031e-39
3321.8201 -2389.79 39.562599 9.2197031e-39
3305.0735 -2377.27 35.200699 9.2197031e-39
3138.1599 1865.6599 32.352402 9.2197031e-39
3399.46 -3801.6201 46.425201 9.2197031e-39
3412.79 -3803.5901 49.9753 9.2197031e-39
3385.79 -3793.53 42.847 9.2197031e-39
3370.75 -2767 48.943501 9.2197031e-39
3352.3799 -2628.2 45.392502 9.2197031e-39
3354.05 -2618.77 45.932098 9.2197031e-39
3352.3401 -2591.6401 45.741901 9.2197031e-39
3339.25 -2583.77 42.314098 9.2197031e-39
3340.99 -2516.48 43.446098 9.2197031e-39
3334.6499 -2472.8999 42.177399 9.2197031e-39
3329.01 -2436.3 41.026501 9.2197031e-39
3324.6599 -2408.6099 40.1348 9.2197031e-39
3337.0967 -2401.6965 43.534698 9.2197031e-39
3343.8738 -2402.8279 45.337898 9.2197031e-39
3326.7749 -2394.1699 40.844498 9.2197031e-39
3332.0151 -2396.3301 42.226051 9.2197031e-39
3342.6499 -2396.9199 45.069099 9.2197031e-39
3325.0032 -2387.2568 40.438999 9.2197031e-39
3341.05 -2381.5 44.793301 9.2197031e-39
3335.98 -2365.27 43.594601 9.2197031e-39
3334.3601 -2358.3901 43.229198 9.2197031e-39
3317 -2115.125 40.97995 9.2197031e-39
3318.0901 -2100.55 41.415401 9.2197031e-39
3323.72 -2107.0215 42.858631 9.2197031e-39
3330.73 -2097.5801 44.829201 9.2197031e-39
3319.9299 -2083.6099 42.075401 9.2197031e-39
3335.25 -2086.45 46.1493 9.2197031e-39
3324.26 -2050.8901 43.556099 9.2197031e-39
3327.04 -2023.99 44.5676 9.2197031e-39
3331.1001 -1986.17 46.026402 9.2197031e-39
3334.76 -1937.6899 47.4851 9.2197031e-39
3334.0601 -1912.83 47.543301 9.2197031e-39
3336.28 -1871.78 48.542301 9.2197031e-39
3338.8401 -1821.74 49.721802 9.2197031e-39
3333.1299 -1651.396 49.873299 9.2197031e-39
3297.1201 -848.66498 48.1464 9.2197031e-39
3172.8401 1866.78 41.648701 9.2197031e-39
3427.6399 -3822.3799 53.767899 9.2197031e-39
3351.7 -2035.22 51.0588 9.2197031e-39
3358.0901 -2020.53 52.914501 9.2197031e-39
3363.55 -2009.75 54.4827 9.2197031e-39
3341.0901 -1766.65 50.868198 9.2197031e-39
3339.5801 -1740.34 50.7229 9.2197031e-39
3336.46 -1672.745 50.5522 9.2197031e-39
3340.8501 -1678.179 51.675999 9.2197031e-39
3331.8301 -1593.1541 50.0998 9.2197031e-39
3345.9299 -1242.4399 57.332699 9.2197031e-39
3320.1499 -874.06598 54.062302 9.2197031e-39
3332.25 -857.435 57.4659 9.2197031e-39
3309.02 -840.81799 51.4109 9.2197031e-39
3207.5801 1864.5801 50.930801 9.2197031e-39
3382.55 -1957.3199 60.088299 9.2197031e-39
3404.6201 -1898.6 66.578003 9.2197031e-39
3362.5601 -713.6781 67.000801 9.2197031e-39
3350.25 -697.05927 63.868401 9.2197031e-39
3242.49 1844.0801 60.076 9.2197031e-39
3276.9199 1864.26 69.494598 9.2197031e-39
3421.3 -1859.12 71.433601 9.2197031e-39
3438.3301 -1820.85 76.370102 9.2197031e-39
3457.3501 -1779.13 81.875198 9.2197031e-39
3468.1599 -1761.99 84.939301 9.2197031e-39
3484.55 -1731.0601 89.630501 9.2197031e-39
3498.95 -1706.89 93.725502 9.2197031e-39
3511.5701 -1688.4819 97.2873 9.2197031e-39
3534.26 -1646.3259 103.779 9.2197031e-39
3574.1201 -1565.1 115.252 9.2197031e-39
3626.28 -1458.9719 130.267 9.2197031e-39
3657.99 -1404.718 139.291 9.2197031e-39
3731.52 -2809.8799 145.123 9.2197031e-39
3670.76 -1395.405 142.804 9.2197031e-39
3681.24 -1391.676 145.647 9.2197031e-39
3695.1799 -1380.881 149.48599 9.2197031e-39
3776.28 -2877.98 156.437 9.2197031e-39
3778.1799 -2858.3201 157.13901 9.2197031e-39
3782.79 -2802.3701 158.924 9.2197031e-39
3770.97 -2798.6201 155.79601 9.2197031e-39
3702.48 -1384.5959 151.40401 9.2197031e-39
3716 -1384.9635 155.02051 9.2197031e-39
3730.5 -1383.771 158.91499 9.2197031e-39
3829.54 -3120.0601 168.311 9.2197031e-39
3827.3501 -3100.0801 167.92 9.2197031e-39
3815.75 -3066.04 165.151 9.2197031e-39
3824.79 -3064.5901 167.58501 9.2197031e-39
3816.52 -2830.0601 167.683 9.2197031e-39
3740.98 -1381.652 161.743 9.2197031e-39
3769.48 -1382.1079 169.368 9.2197031e-39
3751.54 -1379.657 164.588 9.2197031e-39
3763.1001 -1376.046 167.72 9.2197031e-39
3856.27 -3081.03 175.853 9.2197031e-39
3844.29 -3078.6899 172.66701 9.2197031e-39
3863.8301 -3076.71 177.918 9.2197031e-39
3843.1399 -2927.3999 173.851 9.2197031e-39
3859.46 -2911.46 178.37801 9.2197031e-39
3788.47 -1383.23 174.44299 9.2197031e-39
3782.1299 -1377.0139 172.806 9.2197031e-39
3800.77 -1379.259 177.77499 9.2197031e-39
3881.6201 -3086.8799 182.582 9.2197031e-39
3887.45 -2897.0601 186.015 9.2197031e-39
3820 -1381.0701 182.907 9.2197031e-39
3812.6699 -1376.293 180.99001 9.2197031e-39
3832.53 -1377.5239 186.298 9.2197031e-39
3845.1699 -1374.1379 189.713 9.2197031e-39
3951.6201 -3811.54 194.179 9.2197031e-39
3911.1599 -3112.8501 190.237 9.2197031e-39
3857.3601 -1371.745 193.002 9.2197031e-39
3870.72 -1367.8569 196.619 9.2197031e-39
3882.54 -1366.603 199.79601 9.2197031e-39
4001.5701 -3890.47 206.77499 9.2197031e-39
3968.8101 -3366.47 203.173 9.2197031e-39
3950.53 -3151.1201 200.401 9.2197031e-39
3950.7 -3119.3999 200.75999 9.2197031e-39
3971 -3069.8201 206.683 9.2197031e-39
3889.96 -1372.012 201.728 9.2197031e-39
3901.29 -1371.822 204.76401 9.2197031e-39
3916.1001 -1366.9451 208.77699 9.2197031e-39
3928.72 -1365.467 212.172 9.2197031e-39
3940.8301 -1364.943 215.42 9.2197031e-39
3951.8101 -1366.1479 218.349 9.2197031e-39
4078.3101 -3741.8201 228.791 9.2197031e-39
4033.6899 -3246.6299 221.72701 9.2197031e-39
4052.45 -3062.01 228.569 9.2197031e-39
3958.6399 -1372.9661 220.108 9.2197031e-39
3977.5 -1364.2891 225.246 9.2197031e-39
3990.45 -1363.6079 228.718 9.2197031e-39
4088.98 -3731.1799 231.752 9.2197031e-39
4086.6101 -3696.96 231.455 9.2197031e-39
4098.7798 -3689.74 234.785 9.2197031e-39
4094.6201 -3653.99 234.024 9.2197031e-39
4097.9302 -3632.1299 235.125 9.2197031e-39
4096.8701 -3603.5 235.123 9.2197031e-39
4007.78 -1357.729 233.41901 9.2197031e-39
4020.8999 -1357.423 236.933 9.2197031e-39
4105.7402 -3215.25 241.327 9.2197031e-39
4041.6499 -1348.225 242.58099 9.2197031e-39
4053.6799 -1349.827 245.787 9.2197031e-39
4068.3201 -1348.604 249.71899 9.2197031e-39
4190.2598 -3989.8101 256.32001 9.2197031e-39
4170.8701 -3156.26 259.35001 9.2197031e-39
4139.4199 -3139.22 251.097 9.2197031e-39
4158.8301 -3113.1699 256.55099 9.2197031e-39
4167.48 -3106.6799 258.93201 9.2197031e-39
4168.2598 -3049.3601 259.70599 9.2197031e-39
4149.3799 -3018.46 254.955 9.2197031e-39
4092.5901 -1352.604 256.177 9.2197031e-39
4083.6899 -1346.8401 253.85201 9.2197031e-39
4175.02 -3144.78 260.57401 9.2197031e-39
4174.6699 -3098.73 260.935 9.2197031e-39
4181.79 -3090.73 262.92099 9.2197031e-39
4192.4502 -3086 265.82101 9.2197031e-39
4169.0898 -3022.3701 260.19299 9.2197031e-39
4177.79 -3016.3401 262.58301 9.2197031e-39
4180.48 -3005.1201 263.414 9.2197031e-39
4192.0801 -3001.47 266.55701 9.2197031e-39
4186.2598 -2983.3501 265.17599 9.2197031e-39
4200.7998 -2982 269.08301 9.2197031e-39
4116.02 -1342.4919 262.552 9.2197031e-39
4167.2798 -1397.2271 275.737 9.2197031e-39
4182.96 -1397.094 279.936 9.2197031e-39
4161.46 -1387.9351 274.26999 9.2197031e-39
4159.0098 -1375.207 273.73901 9.2197031e-39
4157.0898 -1361.7571 273.35999 9.2197031e-39
4161.8301 -1341.199 274.83099 9.2197031e-39
4156.8398 -1330.48 273.599 9.2197031e-39
4160.4199 -1310.425 274.75699 9.2197031e-39
4316.4302 -4732.1104 282.784 9.2197031e-39
4195.8398 -1399.8579 283.358 9.2197031e-39
4213.0698 -1398.812 287.983 9.2197031e-39
4284.5298 -3035.1899 290.978 9.2197031e-39
4247.5601 -1412.603 297.082 9.2197031e-39
4258.2998 -1418.124 299.90399 9.2197031e-39
4243.3901 -1401.364 296.077 9.2197031e-39
4230.3901 -1398.0139 292.62799 9.2197031e-39
4388.1099 -4724.5303 302.05399 9.2197031e-39
4413.4502 -4724.5303 308.83801 9.2197031e-39
4271.27 -1421.886 303.33899 9.2197031e-39
4290.2798 -1420.835 308.439 9.2197031e-39
4438.8701 -4724.2598 315.647 9.2197031e-39
4381.6699 -3081.3101 316.535 9.2197031e-39
4358.3901 -3078.5 310.328 9.2197031e-39
4383.9399 -3067.9099 317.27301 9.2197031e-39
4364.7798 -3038.8701 312.42899 9.2197031e-39
4359.4902 -3020.55 311.19299 9.2197031e-39
4354.77 -3002.95 310.104 9.2197031e-39
4371.5 -3000.5801 314.60901 9.2197031e-39
4383.4399 -2994.6599 317.862 9.2197031e-39
4388.8599 -2984.22 319.41699 9.2197031e-39
4304.8198 -1423.7629 312.30499 9.2197031e-39
4318.6299 -1427.5 315.966 9.2197031e-39
4463.0898 -4721.0303 322.164 9.2197031e-39
4492.54 -4728.2803 329.98001 9.2197031e-39
4393.3701 -2973.2 320.733 9.2197031e-39
4402.7002 -2965.3401 323.31 9.2197031e-39
4353.2598 -1430.177 325.21301 9.2197031e-39
4339.3799 -1426.0029 321.53699 9.2197031e-39
4516.9199 -4724.5 336.543 9.2197031e-39
4387.3301 -1434.442 334.29199 9.2197031e-39
4402.8501 -1438.092 338.41199 9.2197031e-39
4373.3901 -1429.834 330.60599 9.2197031e-39
4546.25 -4730.2197 344.341 9.2197031e-39
4410.4502 -1447.63 340.353 9.2197031e-39
4431.5601 -1447.728 346.005 9.2197031e-39
4528.3501 -3030.95 356.306 9.2197031e-39
4452.75 -1448.1479 351.67599 9.2197031e-39
4474.8301 -1448.345 357.586 9.2197031e-39
4505.1299 -1443.502 365.746 9.2197031e-39
4533.96 -1440.209 373.49899 9.2197031e-39
4557.1899 -1441.037 379.70999 9.2197031e-39
4587.1099 -1438.1 387.75 9.2197031e-39
4678.3999 -3108.75 395.71701 9.2197031e-39
4626.54 -1672.6479 395.995 9.2197031e-39
4619.8301 -1661.363 394.31201 9.2197031e-39
4626.3101 -1430.054 398.327 9.2197031e-39
4661.7002 -1628.1909 405.84799 9.2197031e-39
4673.1401 -1608.068 409.10999 9.2197031e-39
4648.21 -1433.1689 404.16 9.2197031e-39
4679.3901 -1431.194 412.52899 9.2197031e-39
4752.77 -1679.6011 429.72601 9.2197031e-39
4725.5898 -1568.172 423.54901 9.2197031e-39
4725.0498 -1421.4709 424.85001 9.2197031e-39
4777.75 -1408.6909 439.08801 9.2197031e-39
4908.2598 -1354.03 474.57199 9.2197031e-39
4971.8599 -1680.01 488.38901 9.2197031e-39
5018.96 -1681.38 500.98599 9.2197031e-39
5069.8398 -1682.386 514.60199 9.2197031e-39
5109.79 -1705.54 525.07098 9.2197031e-39
5098.6401 -1691.1021 522.22601 9.2197031e-39
5153.3999 -1710.77 536.69501 9.2197031e-39
5184.8301 -1330.072 548.86603 9.2197031e-39
5180.46 -1311.2419 547.88202 9.2197031e-39
5187.1899 -1286.7151 549.92603 9.2197031e-39
5178.98 -1269.588 547.89502 9.2197031e-39
5179.21 -1247.991 548.17102 9.2197031e-39
5168.96 -1231.8621 545.58502 9.2197031e-39
5425.8701 -1694.3049 609.81702 9.2197031e-39
5498.6401 -1738.74 628.86499 9.2197031e-39
5471.6499 -1724.21 621.78003 9.2197031e-39
5480.25 -1701.23 624.30902 9.2197031e-39
5586.9902 -3644.2 633.729 9.2197031e-39
5599.4702 -3623.9299 637.26898 9.2197031e-39
5515.6401 -1797.85 632.83301 9.2197031e-39
5640.4102 -3620.25 648.26898 9.2197031e-39
5595.8999 -1759.95 654.69897 9.2197031e-39
5705.1602 -3629.5 665.51599 9.2197031e-39
5706.46 -3601.9399 666.13501 9.2197031e-39
5707.48 -3574.46 666.67902 9.2197031e-39
5714.23 -3550.29 668.72498 9.2197031e-39
5702.6499 -3516.5801 665.95697 9.2197031e-39
5695.8799 -3485.8501 664.44897 9.2197031e-39
5661.5298 -1723.6899 672.62799 9.2197031e-39
5765.3101 -3493.8601 682.95898 9.2197031e-39
5775.23 -2065.8999 699.698 9.2197031e-39
5773.5498 -2043.45 699.46997 9.2197031e-39
5816.7402 -2154.48 709.94 9.2197031e-39
5808.0801 -2132 707.84399 9.2197031e-39
5798.2798 -2109.73 705.43799 9.2197031e-39
5785.3999 -2087.8101 702.20502 9.2197031e-39
5845.0801 -2199.6401 717.08301 9.2197031e-39
5831.9702 -2176.9102 713.797 9.2197031e-39
5887.1201 -2269.26 727.65399 9.2197031e-39
5876.52 -2245.8 725.047 9.2197031e-39
5858 -2222.6099 720.31598 9.2197031e-39
5911.04 -2293.1401 733.82397 9.2197031e-39
5958.27 -2342.2 745.98499 9.2197031e-39
5935.73 -2317.48 740.19397 9.2197031e-39
6007.52 -2393.1299 758.67102 9.2197031e-39
5983.4902 -2367.46 752.48901 9.2197031e-39
7054.9102 -4101.2803 1022.28 9.2197031e-39
6982.9199 -1639.203 1027.29 9.2197031e-39
6960.4199 -1608.832 1021.56 9.2197031e-39
6956.7202 -1575.334 1020.9 9.2197031e-39
7232.5098 -4145.3101 1069.4 9.2197031e-39
7237.71 -4104.6899 1071.1899 9.2197031e-39
7234.5698 -4060.47 1070.79 9.2197031e-39
7244.29 -4022.4199 1073.77 9.2197031e-39
7241.2002 -3978.8601 1073.37 9.2197031e-39
7239.4702 -3936.26 1073.33 9.2197031e-39
7240.02 -3894.9399 1073.88 9.2197031e-39
7246.4702 -3856.3 1075.99 9.2197031e-39
7243.54 -3814.1001 1075.62 9.2197031e-39
7249.2598 -3775.5601 1077.54 9.2197031e-39
7245.5498 -3733.6201 1076.95 9.2197031e-39
7253.2798 -3696.1899 1079.39 9.2197031e-39
7249.7002 -3654.8401 1078.84 9.2197031e-39
7146.5 -1647.96 1071 9.2197031e-39
7253.9902 -3616.51 1080.37 9.2197031e-39
7260.7002 -3579.1399 1082.53 9.2197031e-39
7255.0801 -3537.8401 1081.4399 9.2197031e-39
7260.1699 -3500.25 1083.17 9.2197031e-39
7319.5698 -1879.74 1115.0601 9.2197031e-39
7317.1899 -1843.24 1114.78 9.2197031e-39
7300.0898 -1808.34 1110.55 9.2197031e-39
7304.7798 -1771.09 1112.17 9.2197031e-39
7310.1099 -1733.61 1113.97 9.2197031e-39
7313.1899 -1696.246 1115.16 9.2197031e-39
7309.25 -1659.7681 1114.47 9.2197031e-39
7305.8398 -1473.824 1115.39 9.2197031e-39
7491.1299 -3531.8 1144.71 9.2197031e-39
7623.46 -3529.8501 1180.16 9.2197031e-39
7763.5098 -3527.74 1217.6801 9.2197031e-39
7870.2202 -3513.8999 1246.39 9.2197031e-39
7872.1899 -3470.25 1247.35 9.2197031e-39
7864.3999 -3424.25 1245.71 9.2197031e-39
7901.6201 -2620.0698 1263.61 9.2197031e-39
7912.1899 -2578.95 1266.85 9.2197031e-39
8135.3701 -3447.6201 1318.04 9.2197031e-39
8451.3096 -3476.73 1402.35 9.2197031e-39
