# .PCD v0.7 - Point Cloud Data file format
VERSION 0.7
FIELDS x y z rgb
SIZE 4 4 4 4
TYPE F F F F
COUNT 1 1 1 1
WIDTH 292
HEIGHT 1
VIEWPOINT 0 0 0 1 0 0 0
POINTS 292
DATA ascii
120.741 -7706 32.352402 9.2197031e-39
144.998 -863.07654 38.8521 9.2197031e-39
136.189 -852.16199 36.4916 9.2197031e-39
143.58151 -853.67798 38.472599 9.2197031e-39
134.96999 -846.05365 36.165001 9.2197031e-39
145.733 -846.73596 39.048901 9.2197031e-39
132.869 -830.39697 35.602001 9.2197031e-39
145.384 -837.65601 38.955601 9.2197031e-39
145.39799 -823.71967 38.959332 9.2197031e-39
146.254 -819.10205 39.188599 9.2197031e-39
126.991 -805.802 34.027199 9.2197031e-39
148.0695 -584.41351 39.675102 9.2197031e-39
148.119 -577.229 39.688301 9.2197031e-39
128.51199 -239.07001 34.4347 9.2197031e-39
132.599 -231.16101 35.5299 9.2197031e-39
142.47549 -231.54451 38.176201 9.2197031e-39
149.04601 -220.89499 39.9366 9.2197031e-39
122.785 -215.509 32.900101 9.2197031e-39
136.989 -218.29401 36.7061 9.2197031e-39
179.711 -7695.73 48.1535 9.2197031e-39
166.57301 -843.85828 44.633049 9.2197031e-39
159.69701 -836.15198 42.7906 9.2197031e-39
168.12851 -838.56604 45.0499 9.2197031e-39
152.47667 -824.7309 40.855984 9.2197031e-39
160.243 -829.70599 42.937 9.2197031e-39
151.48151 -583.26624 40.589325 9.2197031e-39
174.8 -582.664 46.837502 9.2197031e-39
157.63866 -575.04498 42.239101 9.2197031e-39
161.4355 -572.27051 43.25655 9.2197031e-39
175.23 -573.24976 46.952702 9.2197031e-39
167.493 -563.31702 44.8797 9.2197031e-39
175.94234 -564.2193 47.143566 9.2197031e-39
151.05499 -558.43701 40.475101 9.2197031e-39
168.541 -556.28101 45.1604 9.2197031e-39
174.37801 -553.42322 46.724426 9.2197031e-39
153.67599 -539.58398 41.177502 9.2197031e-39
154.826 -526.55298 41.4856 9.2197031e-39
155.39101 -515.45398 41.6367 9.2197031e-39
157.882 -492.53302 42.304401 9.2197031e-39
180.04601 -333.10199 48.243301 9.2197031e-39
182.69299 -295.048 48.952499 9.2197031e-39
181.41901 -279.668 48.611099 9.2197031e-39
180.29401 -261.311 48.309502 9.2197031e-39
175.6575 -253.106 47.067299 9.2197031e-39
166.782 -246.49799 44.688999 9.2197031e-39
170.493 -247.92499 45.683498 9.2197031e-39
164.161 -233.159 43.986698 9.2197031e-39
154.9655 -223.32001 41.522903 9.2197031e-39
160.897 -224.815 43.112301 9.2197031e-39
195.884 -258.806 52.487 9.2197031e-39
239.40199 -7737.9302 64.147598 9.2197031e-39
303.42499 -7922.52 81.302399 9.2197031e-39
364.19699 -7917.6001 97.586197 9.2197031e-39
425.44699 -7925.1201 113.998 9.2197031e-39
1266.55 1578.73 339.37201 9.2197031e-39
1258.13 1661.73 337.116 9.2197031e-39
1256.39 1710.5701 336.64899 9.2197031e-39
1278.0601 1506.71 342.45499 9.2197031e-39
1290.25 1577.1201 345.72198 9.2197031e-39
1274.05 1643.3501 341.38101 9.2197031e-39
1330.88 932.71997 356.60901 9.2197031e-39
1322.89 951.57996 354.466 9.2197031e-39
1314.67 970.41003 352.263 9.2197031e-39
1318.97 1448.6101 353.41699 9.2197031e-39
1311.28 1478.5 351.35599 9.2197031e-39
1313.48 1527.6599 351.94501 9.2197031e-39
1351.74 1463.55 362.19901 9.2197031e-39
1452.61 1506.6201 389.22501 9.2197031e-39
1422.67 1543.21 381.203 9.2197031e-39
1478.72 1270.97 396.22101 9.2197031e-39
1477.9 1505.47 396.00299 9.2197031e-39
1457.17 1557.79 390.448 9.2197031e-39
1522.71 -3884.8601 408.009 9.2197031e-39
1525.5699 779.98999 408.77499 9.2197031e-39
1526.91 945.45996 409.13501 9.2197031e-39
1520.83 1295.04 407.505 9.2197031e-39
1505.8101 1466.4399 403.48099 9.2197031e-39
1521.6899 1533.3799 407.737 9.2197031e-39
1552.79 -4562.2197 416.069 9.2197031e-39
1549.54 -4455.1699 415.19699 9.2197031e-39
1554 -4372.5801 416.392 9.2197031e-39
1541.65 -4251.3896 413.08401 9.2197031e-39
1542.85 -4168.46 413.405 9.2197031e-39
1543.53 -4087.6201 413.58701 9.2197031e-39
1542.17 -4005.21 413.22299 9.2197031e-39
1537.26 -3844.8899 411.90701 9.2197031e-39
1536.27 -3772.3999 411.64099 9.2197031e-39
1539.14 -3645.23 412.41199 9.2197031e-39
1555.02 660.64001 416.66699 9.2197031e-39
1554.09 683.77002 416.418 9.2197031e-39
1544.14 773.60999 413.75101 9.2197031e-39
1554.95 949.04004 416.647 9.2197031e-39
1603.61 -3847.5801 429.685 9.2197031e-39
1604.1899 -3650.2 429.84 9.2197031e-39
1571.8101 -3648.3401 421.164 9.2197031e-39
1598.4301 751.73999 428.297 9.2197031e-39
1633.99 -3646.3999 437.82501 9.2197031e-39
1617.53 670.95996 433.41501 9.2197031e-39
1659.6899 -3634.3701 444.711 9.2197031e-39
1645.47 555.60999 440.90302 9.2197031e-39
1694.2 -3638.72 453.95801 9.2197031e-39
1705.24 536.13 456.918 9.2197031e-39
1689.4 546.13 452.673 9.2197031e-39
1681.12 562.10999 450.45401 9.2197031e-39
1725.5699 -3636.5801 462.36401 9.2197031e-39
1735.74 -3087.8301 465.091 9.2197031e-39
1746.84 -3060.1201 468.06299 9.2197031e-39
1753.61 -3026.73 469.87799 9.2197031e-39
1729.58 532.46997 463.439 9.2197031e-39
1727.92 647.37 462.99301 9.2197031e-39
1727.95 798.18005 463.00201 9.2197031e-39
1744.59 952.04004 467.461 9.2197031e-39
1762.33 -3643.6201 472.215 9.2197031e-39
1781.76 -3202.05 477.42001 9.2197031e-39
1754.2 -2985.3701 470.03601 9.2197031e-39
1779.8 -2979.3101 476.89499 9.2197031e-39
1782.89 550.21997 477.72299 9.2197031e-39
1767.49 946.33997 473.59601 9.2197031e-39
1795.42 -3643.3301 481.07999 9.2197031e-39
1797.1801 -2961.8501 481.55301 9.2197031e-39
1819.75 -2951.3501 487.60101 9.2197031e-39
1804.37 543.29004 483.479 9.2197031e-39
1829.61 -3644.3701 490.24301 9.2197031e-39
1863.45 -3644.1699 499.31 9.2197031e-39
1832.05 -2927.3 490.896 9.2197031e-39
1862.3101 -2926.52 499.004 9.2197031e-39
1837.73 544.66003 492.41901 9.2197031e-39
1897.9301 -3644.4199 508.548 9.2197031e-39
1885.5699 555.71997 505.237 9.2197031e-39
1937.73 -3652.71 519.21301 9.2197031e-39
1916.03 -2954.6899 513.39899 9.2197031e-39
1927.3199 561.54004 516.42401 9.2197031e-39
1975.7 -3657.1499 529.388 9.2197031e-39
1961.67 -2971.3201 525.62598 9.2197031e-39
1953.14 -2921.1499 523.34198 9.2197031e-39
1971.79 -2904.51 528.34003 9.2197031e-39
1942.29 910.63 520.435 9.2197031e-39
2010.6899 -3656.1299 538.76202 9.2197031e-39
1992.22 -2889.95 533.81403 9.2197031e-39
1987.99 -2846.95 532.67999 9.2197031e-39
1985.13 -2806.3999 531.91498 9.2197031e-39
1999.52 -2785.8201 535.771 9.2197031e-39
2009.0601 -2760.0601 538.32501 9.2197031e-39
2011.99 595.94995 539.11102 9.2197031e-39
1984.65 919.18005 531.78601 9.2197031e-39
2042.01 -3648.8899 547.15601 9.2197031e-39
2031.04 -2747.96 544.21698 9.2197031e-39
2045.53 -2727.77 548.09698 9.2197031e-39
2052.53 -329.33301 549.97498 9.2197031e-39
2048.3899 -312.08499 548.86401 9.2197031e-39
2088.5 -2737.1699 559.612 9.2197031e-39
2088.02 -359.177 559.48401 9.2197031e-39
2070.8101 -344.021 554.87097 9.2197031e-39
2057.3501 -292.09299 551.26501 9.2197031e-39
2061.3999 -272.94901 552.349 9.2197031e-39
2073.75 -251.754 555.66101 9.2197031e-39
2079.3101 -231.87701 557.15002 9.2197031e-39
2075.75 968.43005 556.19501 9.2197031e-39
2116.5801 -372.73901 567.13501 9.2197031e-39
2099.71 -208.13101 562.61603 9.2197031e-39
2105.8 -187.60901 564.24799 9.2197031e-39
2117.3 -165.43903 567.33002 9.2197031e-39
2134.53 -2748.76 571.94598 9.2197031e-39
2148.8799 -386.20099 575.78998 9.2197031e-39
2127.6499 -143.28003 570.10199 9.2197031e-39
2196.8899 -2775.6399 588.65503 9.2197031e-39
2166.75 -402.30899 580.578 9.2197031e-39
2214.1899 -414.67001 593.28998 9.2197031e-39
2217.26 709.53003 594.11401 9.2197031e-39
2263.4299 -84.817017 606.48499 9.2197031e-39
2977.2 -3409.79 797.737 9.2197031e-39
2988.53 -3517.4399 800.77502 9.2197031e-39
2986.03 -3466.1899 800.10498 9.2197031e-39
2987.72 -3372.51 800.55798 9.2197031e-39
2997.1201 -3334.5801 803.07599 9.2197031e-39
3000.27 -3291.4299 803.91803 9.2197031e-39
3092.51 -3327.6699 828.63501 9.2197031e-39
3114.1399 -700 834.43201 9.2197031e-39
3170.05 -727.54968 849.41302 9.2197031e-39
3193.23 -672.24091 855.62402 9.2197031e-39
3199.6399 -644.36169 857.34198 9.2197031e-39
3469.1899 -1094.9661 929.56702 9.2197031e-39
3464.76 -1033.3521 928.38 9.2197031e-39
3468.4099 -1003.215 929.35699 9.2197031e-39
3456.3899 -971.78198 926.13702 9.2197031e-39
3473.3501 -1064.804 930.68201 9.2197031e-39
3520.23 -946.10101 943.24103 9.2197031e-39
3565.9099 -3692.8201 955.48297 9.2197031e-39
3580.98 -919.10303 959.521 9.2197031e-39
3577.26 -355.435 958.52301 9.2197031e-39
3577.1001 1123.23 958.47998 9.2197031e-39
3570.1599 1159 956.62201 9.2197031e-39
3608.8999 -384.06 967.00098 9.2197031e-39
3619.8601 950.89001 969.93799 9.2197031e-39
3604.9399 982.02002 965.94 9.2197031e-39
3599.3401 1017.74 964.44098 9.2197031e-39
3592.55 1053.05 962.61902 9.2197031e-39
3586.28 1088.8101 960.94098 9.2197031e-39
3650.1799 813.51001 978.06201 9.2197031e-39
3644.3999 848.46997 976.51398 9.2197031e-39
3631.21 880.23999 972.97998 9.2197031e-39
3625.7 915.56006 971.50299 9.2197031e-39
3646.47 1240.8 977.06897 9.2197031e-39
3715.8101 -895.05603 995.64899 9.2197031e-39
3724.6299 584.68994 998.01001 9.2197031e-39
3698.1799 611.53003 990.92401 9.2197031e-39
3722.3899 657.14001 997.41101 9.2197031e-39
3720.76 693.47998 996.97498 9.2197031e-39
3760.05 560.65002 1007.5 9.2197031e-39
3755.9399 820.53003 1006.4 9.2197031e-39
3802.6899 538.54004 1018.93 9.2197031e-39
3774.71 752.10999 1011.43 9.2197031e-39
3822.0701 -297.25201 1024.12 9.2197031e-39
3824.29 -263.14899 1024.71 9.2197031e-39
3820.46 -229.70599 1023.69 9.2197031e-39
3839.71 513.94995 1028.85 9.2197031e-39
3880.28 489.94995 1039.72 9.2197031e-39
3949.45 1497.1599 1058.25 9.2197031e-39
3991.23 -3203.8701 1069.45 9.2197031e-39
3975.47 1466.78 1065.22 9.2197031e-39
3999.8401 -3160.97 1071.75 9.2197031e-39
4040.3 -3138.1899 1082.6 9.2197031e-39
4079.02 -3113.8501 1092.97 9.2197031e-39
4104.23 -3081 1099.73 9.2197031e-39
4138.8301 1799.48 1109 9.2197031e-39
4159.46 -3065.6001 1114.52 9.2197031e-39
4161.1401 1666.5901 1114.97 9.2197031e-39
4257.8101 -3074.1101 1140.88 9.2197031e-39
4313.4199 -3970.8601 1155.78 9.2197031e-39
4324.3501 2072.47 1158.71 9.2197031e-39
4364.8999 -3951.3 1169.5699 9.2197031e-39
4370.75 -4076.1899 1171.14 9.2197031e-39
4415.5498 2078.3701 1183.14 9.2197031e-39
4441.3799 -3949.8601 1190.0601 9.2197031e-39
4498.4902 -3932.77 1205.37 9.2197031e-39
4491.5801 -3156.8899 1203.52 9.2197031e-39
4489.8701 2071.8501 1203.0601 9.2197031e-39
4550.9902 -4480.8501 1219.4301 9.2197031e-39
4561.1802 -3918.9099 1222.16 9.2197031e-39
4630.7402 -4480.96 1240.8 9.2197031e-39
4704.0098 -4474.3101 1260.4399 9.2197031e-39
4703.2202 2094.51 1260.22 9.2197031e-39
4744.1699 2063.5 1271.2 9.2197031e-39
4789.7002 -4476.4697 1283.39 9.2197031e-39
5414.4399 -4466.6001 1450.79 9.2197031e-39
5497.2402 -4454.4199 1472.98 9.2197031e-39
5516.6001 -4397.4297 1478.17 9.2197031e-39
5509.48 -4322.9399 1476.26 9.2197031e-39
5509.6699 -4254.2402 1476.3101 9.2197031e-39
5559.8198 -3446.3999 1489.75 9.2197031e-39
5558.3501 -3385.1001 1489.35 9.2197031e-39
5576.5 -3703.21 1494.22 9.2197031e-39
5569.8999 -3636.72 1492.45 9.2197031e-39
5569.4902 -3574.21 1492.34 9.2197031e-39
5569.3101 -3512.3799 1492.29 9.2197031e-39
5564.1401 -3327.8401 1490.91 9.2197031e-39
5563.23 -3267.78 1490.66 9.2197031e-39
5594.3701 -3222.99 1499.01 9.2197031e-39
5761.9702 1600.53 1543.91 9.2197031e-39
6715.0801 -819.16498 1799.3 9.2197031e-39
6881.8398 -883.29102 1843.98 9.2197031e-39
6888.6299 1309.12 1845.8 9.2197031e-39
6895.52 1377.5701 1847.65 9.2197031e-39
7128.02 -3557.6101 1909.95 9.2197031e-39
7113.1802 -1016.066 1905.97 9.2197031e-39
7124.2598 -953.19598 1908.9399 9.2197031e-39
7125.23 -446.76898 1909.2 9.2197031e-39
7122.8301 -383.49799 1908.5601 9.2197031e-39
7139.0298 -3859.29 1912.9 9.2197031e-39
7140.5 -3784.8201 1913.29 9.2197031e-39
7136.7798 -3708.6599 1912.29 9.2197031e-39
7137.7002 -3635.04 1912.54 9.2197031e-39
7136.5098 -3488.1001 1912.22 9.2197031e-39
7137.1201 -3415.8601 1912.39 9.2197031e-39
7134.3301 -3342.79 1911.64 9.2197031e-39
7132.6699 -3270.6499 1911.1899 9.2197031e-39
7133.0601 -3199.71 1911.3 9.2197031e-39
7149.1099 -1852.45 1915.6 9.2197031e-39
7141.3599 -1786.25 1913.52 9.2197031e-39
7152.1602 -1723.0601 1916.41 9.2197031e-39
7149.02 -1657.932 1915.5699 9.2197031e-39
7155.8701 -1594.277 1917.41 9.2197031e-39
7334.3198 -3198.77 1965.22 9.2197031e-39
7531.4902 -3192.8401 2018.0601 9.2197031e-39
7553.96 -296.69901 2024.08 9.2197031e-39
7547.3901 -229.74301 2022.3199 9.2197031e-39
7552.7798 -161.96802 2023.76 9.2197031e-39
7556.6299 -94.138977 2024.79 9.2197031e-39
7714.3599 -3178.72 2067.05 9.2197031e-39
7712.79 -3103 2066.6399 9.2197031e-39
8080.0601 -3140.8301 2165.05 9.2197031e-39
8426.2402 -3165.5801 2257.8 9.2197031e-39
