# .PCD v0.7 - Point Cloud Data file format
VERSION 0.7
FIELDS x y z rgb
SIZE 4 4 4 4
TYPE F F F F
COUNT 1 1 1 1
WIDTH 319
HEIGHT 1
VIEWPOINT 0 0 0 1 0 0 0
POINTS 319
DATA ascii
252 -1210 134 9.2197031e-39
257.117 -1206.9771 135.371 9.2197031e-39
262.25 -1207.907 136.746 9.2197031e-39
272.26001 -1200.634 139.429 9.2197031e-39
267.17099 -1199.7939 138.065 9.2197031e-39
272.483 -772.703 139.48801 9.2197031e-39
273.05499 -765.57098 139.642 9.2197031e-39
273.13 -453.62601 139.662 9.2197031e-39
270.01099 -448.14001 138.826 9.2197031e-39
273.77802 -439.577 139.83501 9.2197031e-39
273.81201 -428.47998 139.84399 9.2197031e-39
252.00101 1312 134 9.2197031e-39
268.11801 1311.9301 138.319 9.2197031e-39
277.069 -1194.4341 140.717 9.2197031e-39
282.23099 -1197.1799 142.10001 9.2197031e-39
286.556 -1184.907 143.259 9.2197031e-39
291.215 -1180.582 144.508 9.2197031e-39
295.729 -1175.2209 145.717 9.2197031e-39
299.31299 -1159.8611 146.677 9.2197031e-39
300.327 -1119.5969 146.94901 9.2197031e-39
289.15601 -965.98401 143.95599 9.2197031e-39
290.05301 -945.763 144.196 9.2197031e-39
280.983 -800.77002 141.76601 9.2197031e-39
283.59601 -795.612 142.466 9.2197031e-39
277.27301 -786.16998 140.772 9.2197031e-39
282.80499 -772.07001 142.254 9.2197031e-39
286.01349 -762.18152 143.114 9.2197031e-39
303.59399 -764.32361 147.8246 9.2197031e-39
285.56998 -756.85864 142.995 9.2197031e-39
292.97849 -755.63702 144.98018 9.2197031e-39
307.17099 -756.92902 148.783 9.2197031e-39
281.46399 -749.92798 141.895 9.2197031e-39
304.03448 -747.99451 147.9425 9.2197031e-39
310.21799 -473.638 149.599 9.2197031e-39
307.077 -462.34198 148.758 9.2197031e-39
287.67249 -454.61899 143.5585 9.2197031e-39
291.36798 -453.05301 144.54849 9.2197031e-39
309.745 -459.16299 149.47301 9.2197031e-39
278.83701 -442.431 141.19099 9.2197031e-39
287.177 -448.31 143.42599 9.2197031e-39
296.45377 -445.99274 145.91148 9.2197031e-39
303.58334 -444.94302 147.82167 9.2197031e-39
310.84698 -441.29102 149.76801 9.2197031e-39
277.60999 -437.14551 140.86249 9.2197031e-39
286.035 -434.21948 143.11951 9.2197031e-39
305.948 -437.8765 148.45551 9.2197031e-39
311.198 -436.082 149.862 9.2197031e-39
285.25153 -426.905 142.9095 9.2197031e-39
284.16599 1307.71 142.619 9.2197031e-39
300.194 1305.35 146.914 9.2197031e-39
314.48874 -456.40799 150.744 9.2197031e-39
314.45648 -437.92349 150.735 9.2197031e-39
316.52301 1312.83 151.289 9.2197031e-39
332.55899 1310.1801 155.586 9.2197031e-39
349.11301 1318.37 160.021 9.2197031e-39
365.75101 1325.4 164.479 9.2197031e-39
382.31299 1329.29 168.91701 9.2197031e-39
398.57001 1328.04 173.27299 9.2197031e-39
415.57401 1335.61 177.83 9.2197031e-39
448.88599 1339.3199 186.755 9.2197031e-39
432.53201 1341.02 182.373 9.2197031e-39
1311.86 1057.76 417.98901 9.2197031e-39
1340.92 1071.34 425.77499 9.2197031e-39
1368.1 1081.22 433.05701 9.2197031e-39
1423.28 1069 447.84399 9.2197031e-39
1411.45 1755.8201 444.67401 9.2197031e-39
1429.5699 1899.55 449.52899 9.2197031e-39
1461.34 588.09998 458.04001 9.2197031e-39
1451.28 598.97998 455.345 9.2197031e-39
1441.8101 610.46997 452.80899 9.2197031e-39
1433.61 623.29004 450.612 9.2197031e-39
1432.71 1051.9301 450.37 9.2197031e-39
1433.3 1700.0801 450.52899 9.2197031e-39
1463.71 1710.4099 458.67599 9.2197031e-39
1457.58 1797.5901 457.034 9.2197031e-39
1435.08 1856.5901 451.005 9.2197031e-39
1483.27 508.07996 463.918 9.2197031e-39
1503.58 506.66003 469.35999 9.2197031e-39
1487.63 531.75 465.086 9.2197031e-39
1490.96 554.92004 465.979 9.2197031e-39
1484.03 568.77002 464.121 9.2197031e-39
1469.89 575.76001 460.33301 9.2197031e-39
1471.4301 1169.89 460.746 9.2197031e-39
1501.87 1734.3601 468.901 9.2197031e-39
1543.14 482.43005 479.961 9.2197031e-39
1515.8199 497.88 472.64001 9.2197031e-39
1533.23 493.42004 477.30301 9.2197031e-39
1520.36 1111.26 473.85501 9.2197031e-39
1542.49 1623.49 479.785 9.2197031e-39
1526.64 1640.24 475.53799 9.2197031e-39
1509.61 1701.22 470.974 9.2197031e-39
1539.1 1707.96 478.87601 9.2197031e-39
1570.36 485.67004 487.254 9.2197031e-39
1575.8199 1636.47 488.715 9.2197031e-39
1612.8 1611.3701 498.62399 9.2197031e-39
1653.99 -3938.1001 509.66199 9.2197031e-39
1654.37 -3785.77 509.76401 9.2197031e-39
1650.5601 -3705.01 508.742 9.2197031e-39
1650.6 -3568.72 508.755 9.2197031e-39
1654.8 877.84998 509.879 9.2197031e-39
1628.34 1068.33 502.78799 9.2197031e-39
1651.22 1066.4 508.92001 9.2197031e-39
1623.28 1671.9199 501.43399 9.2197031e-39
1680.9399 -4453.8203 516.88202 9.2197031e-39
1657.79 -4294.6899 510.67899 9.2197031e-39
1664.27 -4218.7998 512.41699 9.2197031e-39
1663.3 -4127.3701 512.15698 9.2197031e-39
1657.13 -4027.04 510.50201 9.2197031e-39
1656.54 -3865.9199 510.345 9.2197031e-39
1670.83 -3546.1201 514.17499 9.2197031e-39
1676.73 1067.17 515.75598 9.2197031e-39
1671.99 1499.49 514.48401 9.2197031e-39
1717.84 -3781.6101 526.771 9.2197031e-39
1698.6801 -3539.4299 521.63702 9.2197031e-39
1717.67 1055.92 526.72601 9.2197031e-39
1701.0699 1066.13 522.27802 9.2197031e-39
1731.4301 -3542.21 530.41302 9.2197031e-39
1765.25 -3546.3999 539.47302 9.2197031e-39
1746.0699 1058.71 534.33398 9.2197031e-39
1788.64 -3529.98 545.742 9.2197031e-39
1830.61 -3548.3401 556.98602 9.2197031e-39
1858.25 -3539.1899 564.39398 9.2197031e-39
1891.1801 -3539.29 573.216 9.2197031e-39
1920.3 -3532.1201 581.02002 9.2197031e-39
1954.9 -3534.0801 590.29199 9.2197031e-39
1988.15 -3533.0801 599.20001 9.2197031e-39
2025.09 -3537.6399 609.099 9.2197031e-39
2054.98 -3529.9399 617.10602 9.2197031e-39
2090.1299 -3530.3101 626.52502 9.2197031e-39
2124.8899 -3529.4399 635.83801 9.2197031e-39
2160.3101 -3528.99 645.33002 9.2197031e-39
2167.3 -443.94501 647.20398 9.2197031e-39
2148.6001 -428.216 642.19098 9.2197031e-39
2151.8799 -410.60901 643.07202 9.2197031e-39
2147.3301 -393.76501 641.85199 9.2197031e-39
2154.1599 -375.63098 643.68201 9.2197031e-39
2162.74 -357.11401 645.98102 9.2197031e-39
2195.3201 -3527.3 654.71198 9.2197031e-39
2201.3101 -458.883 656.315 9.2197031e-39
2232.6699 -3528.47 664.71802 9.2197031e-39
2251.5901 -473.38501 669.789 9.2197031e-39
2277.47 -3539.77 676.72198 9.2197031e-39
2288.27 -489.51898 679.61798 9.2197031e-39
2313.53 -3537.54 686.38397 9.2197031e-39
2321.9399 -506.4364 688.638 9.2197031e-39
2353.72 -3540.51 697.15503 9.2197031e-39
2353.54 -524.0238 697.10602 9.2197031e-39
2393.54 -3542.1699 707.82397 9.2197031e-39
2397.96 -561.22083 709.008 9.2197031e-39
2382.1001 -542.25372 704.75897 9.2197031e-39
2428.23 -600 717.11902 9.2197031e-39
2411.73 -580.48749 712.69702 9.2197031e-39
2451.1899 -3567.1399 723.271 9.2197031e-39
2446.5 -619.82672 722.01398 9.2197031e-39
2518.9299 -3603.8999 741.42297 9.2197031e-39
2542.53 1219.59 747.74597 9.2197031e-39
2537.76 1248.83 746.46802 9.2197031e-39
2632.5601 -3698.3401 771.86902 9.2197031e-39
2655.1599 1240.98 777.92499 9.2197031e-39
2631.8401 1256.6 771.67603 9.2197031e-39
2687 1231.54 786.45599 9.2197031e-39
2753.55 342.60699 804.28802 9.2197031e-39
2753.46 1247.22 804.26398 9.2197031e-39
2805.0801 -3864.01 818.09601 9.2197031e-39
2807.71 1252.65 818.79901 9.2197031e-39
2847.8601 -3860.1101 829.55798 9.2197031e-39
2885.1699 -3848.79 839.55701 9.2197031e-39
2866.21 1260.08 834.47601 9.2197031e-39
2926.8899 -3842.3701 850.73401 9.2197031e-39
2929.8401 381.72601 851.526 9.2197031e-39
2931.4399 1271.0601 851.953 9.2197031e-39
2961.72 -3827.1399 860.06702 9.2197031e-39
2995.22 -3810.02 869.04303 9.2197031e-39
3016.47 -3563.6799 874.73798 9.2197031e-39
3001.8799 1284.3101 870.828 9.2197031e-39
3049.3201 -3816.3301 883.539 9.2197031e-39
3052.1799 -3550 884.30603 9.2197031e-39
3069.0701 -1088.046 888.83197 9.2197031e-39
3070.3201 1294.8 889.16498 9.2197031e-39
3093.9399 -3810.8401 895.49597 9.2197031e-39
3108.3799 -3505.97 899.36298 9.2197031e-39
3104.27 -3451.5701 898.26398 9.2197031e-39
3100.8799 -3398.8501 897.354 9.2197031e-39
3091.8601 -3341.6299 894.93903 9.2197031e-39
3091.3601 -3293.5801 894.80499 9.2197031e-39
3102.47 -3257.1201 897.78198 9.2197031e-39
3080.71 -1063.828 891.95001 9.2197031e-39
3112.99 -3776.27 900.60101 9.2197031e-39
3114.3899 -3722.74 900.97601 9.2197031e-39
3113.1399 -3562.0701 900.64001 9.2197031e-39
3113.9099 -3221.3201 900.84698 9.2197031e-39
3122.05 -3182.8999 903.02698 9.2197031e-39
3265.23 -654.45148 941.39203 9.2197031e-39
3312.9399 -682.9809 954.17499 9.2197031e-39
3367.26 -60.294983 968.73102 9.2197031e-39
3345.47 -35.296021 962.89203 9.2197031e-39
3436.77 -3416.01 987.35699 9.2197031e-39
3516.3 26.343018 1008.66 9.2197031e-39
3595.01 -963.75903 1029.76 9.2197031e-39
3594.1001 -933.16003 1029.51 9.2197031e-39
3591.01 -902.42999 1028.6801 9.2197031e-39
3581.8701 -871.31104 1026.24 9.2197031e-39
3575.3601 -840.58997 1024.49 9.2197031e-39
3667.71 1280.23 1049.24 9.2197031e-39
3698.6499 -3594.1001 1057.53 9.2197031e-39
3699.5 1140.77 1057.75 9.2197031e-39
3693.3401 1176.3101 1056.1 9.2197031e-39
3683.3999 1210.0601 1053.4399 9.2197031e-39
3674.8601 1244.6899 1051.15 9.2197031e-39
3715.6201 -1008.55 1062.0699 9.2197031e-39
3718.03 -819.46899 1062.72 9.2197031e-39
3740.3301 970.27002 1068.6899 9.2197031e-39
3733.1399 1004.58 1066.77 9.2197031e-39
3721.24 1036.79 1063.58 9.2197031e-39
3712.5601 1070.61 1061.25 9.2197031e-39
3715.78 1110.42 1062.12 9.2197031e-39
3781.48 -791.49701 1079.72 9.2197031e-39
3768.48 -758.94897 1076.24 9.2197031e-39
3746.3201 935.56995 1070.3 9.2197031e-39
3813.1201 778.42004 1088.2 9.2197031e-39
3822.3601 1406.9301 1090.67 9.2197031e-39
3888.73 303.90002 1108.46 9.2197031e-39
3888.47 338.65698 1108.39 9.2197031e-39
3876.6799 370.47302 1105.23 9.2197031e-39
3865.9299 688.27002 1102.35 9.2197031e-39
3880.72 842.06995 1106.3101 9.2197031e-39
3926.1899 139.38501 1118.5 9.2197031e-39
3901.8301 203.16302 1111.97 9.2197031e-39
3897.75 236.755 1110.88 9.2197031e-39
3895.27 270.78497 1110.21 9.2197031e-39
3899.1499 411.71997 1111.25 9.2197031e-39
3901.6499 447.83997 1111.92 9.2197031e-39
3905.6799 484.63 1113 9.2197031e-39
3903.22 664.78003 1112.34 9.2197031e-39
3925.9399 898.26001 1118.4301 9.2197031e-39
3938.04 -97.605011 1121.67 9.2197031e-39
3940.3601 -63.348999 1122.29 9.2197031e-39
3933.0701 175.34198 1120.34 9.2197031e-39
3939.46 640.39001 1122.05 9.2197031e-39
3987.55 619.35999 1134.9399 9.2197031e-39
3989.3701 1002.6801 1135.42 9.2197031e-39
4079.8701 1596.6699 1159.67 9.2197031e-39
4053.6399 1626.74 1152.65 9.2197031e-39
4116.96 -1560.627 1169.61 9.2197031e-39
4107.9702 -1521.624 1167.2 9.2197031e-39
4152.9302 -1682.12 1179.25 9.2197031e-39
4131.21 -1601.3101 1173.4301 9.2197031e-39
4142 -1492.813 1176.3199 9.2197031e-39
4154.1001 -1458.675 1179.5601 9.2197031e-39
4172.5098 -1725.61 1184.5 9.2197031e-39
4174.0601 -1650.09 1184.91 9.2197031e-39
4223.6602 -1436.548 1198.2 9.2197031e-39
4237.2002 -1401.97 1201.83 9.2197031e-39
4255.2002 -1368.1221 1206.65 9.2197031e-39
4265.5601 670.34998 1209.4301 9.2197031e-39
4240.96 1068.5 1202.84 9.2197031e-39
4265.3398 1946.1299 1209.37 9.2197031e-39
4294.8198 -1338.004 1217.27 9.2197031e-39
4276.1201 634.05005 1212.26 9.2197031e-39
4329.0801 -1810.3199 1226.45 9.2197031e-39
4393.96 -3890.3501 1243.84 9.2197031e-39
4451.6299 -3876.28 1259.29 9.2197031e-39
4522.5601 -3871.52 1278.29 9.2197031e-39
4499.6001 2201.48 1272.14 9.2197031e-39
4558.5601 -1266.325 1287.9399 9.2197031e-39
4587.4902 -3861.03 1295.6899 9.2197031e-39
4567.8398 -1227.949 1290.4301 9.2197031e-39
4570.1001 -1188.542 1291.03 9.2197031e-39
4568.1802 -1148.656 1290.52 9.2197031e-39
4577.1201 2197.97 1292.91 9.2197031e-39
4677.7798 -4377.0303 1319.88 9.2197031e-39
4643.1201 -3842.6399 1310.6 9.2197031e-39
4690.8599 -3817.76 1323.39 9.2197031e-39
4749.9902 -4370.8896 1339.23 9.2197031e-39
4790.0498 2222.9199 1349.97 9.2197031e-39
4830.7402 -4370.5703 1360.87 9.2197031e-39
4837.7798 2141 1362.76 9.2197031e-39
4882.75 2223.9399 1374.8101 9.2197031e-39
4903.4502 -4362.3101 1380.35 9.2197031e-39
5527.3901 -4353.5703 1547.54 9.2197031e-39
5608.3799 -3610.8701 1569.24 9.2197031e-39
5618.8901 -4347.71 1572.05 9.2197031e-39
5645.4399 -4295.77 1579.17 9.2197031e-39
5638.3101 -4221.2998 1577.26 9.2197031e-39
5631.9702 -4148.3301 1575.5601 9.2197031e-39
5633.0098 -4081.04 1575.84 9.2197031e-39
5633.3198 -4014 1575.92 9.2197031e-39
5627.1201 -3943.6299 1574.26 9.2197031e-39
5625.9702 -3877.1699 1573.95 9.2197031e-39
5617.4199 -3807 1571.66 9.2197031e-39
5613.98 -3740.6799 1570.74 9.2197031e-39
5614.8999 -3677.5701 1570.99 9.2197031e-39
5684.8901 -3222.77 1589.74 9.2197031e-39
5681.3101 -3161.5601 1588.78 9.2197031e-39
5690.7002 -3593.8201 1591.29 9.2197031e-39
5699.4502 -3535.8 1593.64 9.2197031e-39
5690.4199 -3468.77 1591.22 9.2197031e-39
5690.1899 -3407.03 1591.16 9.2197031e-39
5688.4702 -3345.0801 1590.7 9.2197031e-39
5686.9902 -3283.8101 1590.3 9.2197031e-39
5695.6299 -3109.1599 1592.62 9.2197031e-39
7245.8701 -852.84698 2008 9.2197031e-39
7265.8599 -3757.29 2013.36 9.2197031e-39
7261.0898 -3680.1299 2012.08 9.2197031e-39
7265.3701 -3607.51 2013.22 9.2197031e-39
7264.48 -3533.1699 2012.99 9.2197031e-39
7268.2598 -3461.27 2014 9.2197031e-39
7256.9502 -3383.8 2010.97 9.2197031e-39
7267.48 -3315.51 2013.79 9.2197031e-39
7257.4199 -3239.71 2011.1 9.2197031e-39
7263.02 -3170.3101 2012.6 9.2197031e-39
7259.7598 -3098.0801 2011.72 9.2197031e-39
7434.4399 -3087.98 2058.53 9.2197031e-39
7626 -3080.48 2109.8601 9.2197031e-39
7693.9102 551.43005 2128.05 9.2197031e-39
7699.1899 621.13 2129.47 9.2197031e-39
7775.7002 -2981.3701 2149.97 9.2197031e-39
7811.5298 -3067.5901 2159.5701 9.2197031e-39
7797.3301 -2913.8701 2155.77 9.2197031e-39
